# .PCD v0.7 - Point Cloud Data file format
VERSION 0.7
FIELDS x y z normal_x normal_y normal_z curvature
SIZE 4 4 4 4 4 4 4
TYPE F F F F F F F
COUNT 1 1 1 1 1 1 1
WIDTH 741
HEIGHT 1
VIEWPOINT 0 0 0 1 0 0 0
POINTS 741
DATA ascii
0.15371281 -0.5 0.25329286 0.15989625 -0.912579 0.3763414 0
0.24808311 0.24379748 -0.5 0.575122 -0.11724975 -0.80962151 0
-0.5 0.48750132 -0.42260849 -0.59284794 0.57720906 -0.56157017 0
0.21958864 0.37396204 -0.5 -0.095977366 0.095977366 -0.99074554 0
0.32474107 0.5 -0.082768619 0.54098505 0.82864249 -0.14382873 0
-0.5 0.33039331 0.24932224 -0.9116888 0.38742757 0.13683368 0
-0.016748637 0.5 -0.18286034 0.092750892 0.90834868 -0.40779889 0
-0.5 -0.29785722 -0.091110706 -0.90992212 -0.29329324 -0.29329321 0
0.15404055 -0.5 -0.12438446 0.48410192 -0.85512078 0.18550941 0
-0.1521605 -0.34273276 -0.5 -0.27810961 -0.53719836 -0.79628706 0
-0.5 0.31527179 0.41183102 -0.84068161 0.1619709 0.51673979 0
0.16172564 -0.41113389 -0.5 -0.25181246 -0.53058743 -0.80936241 0
-0.5 0.26288623 -0.091758192 -0.87028176 0.48311755 -0.095953263 0
-0.5 -0.232099 -0.28156316 -0.79454023 -0.42936334 -0.42936334 0
0.41514191 -0.5 -0.2207827 0.66375995 -0.7467925 0.041516274 0
0.010921404 -0.5 0.03929612 0.27816597 -0.90752453 0.31467929 0
0.28247488 -0.44469959 0.5 -0.093107201 -0.093107201 0.99129319 0
0.052943975 -0.094088942 -0.5 0.26340586 -0.3228294 -0.90906465 0
-0.083547235 0.5 0.17839888 -0.22663124 0.94724685 0.22663125 0
0.36776102 0.074734211 0.5 0.58662629 0.10799897 0.80262429 0
-0.5 0.29246259 -0.21079099 -0.82547039 0.52114278 -0.21681522 0
-0.29803109 0.0087286234 -0.5 -0.36841699 0.36841702 -0.85354429 0
-0.1578595 0.5 0.14461434 -0.2812444 0.91749835 0.2812444 0
-0.0079874694 -0.24543408 0.5 -0.19670996 -0.19670995 0.96052611 0
0.30157429 -0.26762247 -0.5 0.35908157 -0.26752973 -0.89414108 0
0.28187782 -0.34996539 -0.5 0.14423025 -0.3839044 -0.91203898 0
0.30323181 -0.5 0.13429299 0.49091712 -0.85226595 0.18067442 0
-0.32660395 -0.4091996 -0.5 -0.44343156 -0.56827986 -0.69312811 0
0.5 0.47196931 0.36004812 0.61411488 0.57653433 0.53895378 0
-0.5 0.28520578 -0.23906267 -0.82476807 0.5215888 -0.21840949 0
0.44618902 -0.099122673 -0.5 0.65743113 -0.047298744 -0.75202864 0
-0.16357076 -0.13396895 0.5 -0.28130791 -0.28130788 0.91745937 0
-0.5 0.24618912 -0.49358922 -0.59679157 -0.56737989 -0.56737989 0
0.5 0.37424222 -0.23675814 0.89015096 0.45521432 0.020277686 0
-0.38324022 -0.1186372 0.5 -0.49105349 -0.4910534 0.7195366 0
0.028493881 -0.5 -0.10369414 -0.066129178 -0.99561733 -0.066129178 0
0.15832785 0.5 -0.092238307 0.36554316 0.89269572 -0.2635763 0
0.37895483 0.5 -0.32110429 0.43224812 0.87425363 -0.22100277 0
0.14629225 -0.01616174 0.5 0.42861933 0.22340478 0.87542892 0
0.34805304 0.030649185 0.5 0.58133411 0.11227377 0.80588168 0
0.21999323 0.28565443 0.5 0.19151008 0.36065757 0.91282523 0
-0.22746855 -0.5 -0.063866377 -0.31246725 -0.89706659 -0.31246725 0
-0.5 -0.083549082 -0.10055834 -0.96666527 -0.1810499 -0.1810499 0
0.5 -0.12234169 0.23960984 0.86507702 -0.35471246 0.35471246 0
0.5 0.21408474 0.27600318 0.98557311 -0.11967789 0.11967789 0
-0.45866102 -0.28426397 -0.5 -0.48953167 0.48953167 -0.72160769 0
-0.5 -0.2690261 -0.033930451 -0.94477022 -0.23174269 -0.23174268 0
-0.5 0.3720305 0.41190726 -0.87584823 0.22426961 0.42730904 0
-0.23801079 0.24756014 -0.5 -0.39769539 0.39769539 -0.82684749 0
0.5 0.29464543 -0.099848032 0.896689 0.44250724 -0.011674529 0
0.39906263 0.5 0.23625052 0.65632695 0.75292897 -0.048301041 0
-0.34118095 0.22823218 -0.5 -0.47528353 0.4752835 -0.74041283 0
0.21519458 -0.5 0.042020738 0.45534116 -0.86628294 0.20547092 0
-0.5 0.13648903 0.39216006 -0.79891628 0.10319678 0.59252274 0
-0.088480592 -0.093341857 0.5 -0.17529462 -0.17529462 0.96878457 0
0.5 -0.32838249 0.16822326 0.85546583 -0.36618185 0.36618185 0
0.11004907 0.40554422 -0.5 -0.18795608 0.18795608 -0.96402538 0
0.12300748 0.010805726 -0.5 0.40657631 -0.23777799 -0.88213223 0
-0.3098219 0.5 0.1765306 -0.43955588 0.78331435 0.43955588 0
-0.12455213 -0.5 -0.34781426 -0.33890969 -0.87765628 -0.33890966 0
-0.20029014 0.5 0.27667409 -0.37548187 0.8473646 0.37548187 0
0.39106959 -0.39666283 -0.5 0.2809639 -0.31311914 -0.90720212 0
0.17600492 -0.14257044 -0.5 0.33803806 -0.28020662 -0.89845121 0
-0.29274911 0.5 -0.30722231 -0.27561828 0.79756218 -0.53659022 0
0.5 0.13798189 0.45129186 0.67981845 -0.51857823 0.51857823 0
0.3588742 -0.22216451 -0.5 0.50371462 -0.17148224 -0.84667903 0
-0.00016438961 -0.39781654 -0.5 -0.32389536 -0.54767543 -0.77145547 0
-0.43225184 -0.5 0.49232104 -0.5677883 -0.58680779 0.57729805 0
-0.083599508 -0.5 -0.056572318 -0.14116541 -0.97986972 -0.14116541 0
0.32950136 0.5 0.13165337 0.60348541 0.79179555 -0.094155081 0
-0.46095777 0.5 0.31692314 -0.55807275 0.61409253 0.55807275 0
-0.4862214 0.077046216 0.5 -0.56440198 -0.56440198 0.60241246 0
-0.0049988627 0.016023129 -0.5 -0.020784304 0.020784304 -0.99956793 0
0.22232908 0.5 0.31502765 -0.060079623 0.99638397 0.060079623 0
0.058002651 0.5 0.1492725 -0.075171724 0.99433315 0.075171761 0
0.5 0.16242099 0.49877059 0.58014888 -0.57594585 0.57594585 0
0.5 -0.089241505 0.37794307 0.732687 -0.48123261 0.48123261 0
0.062895954 -0.5 0.30470234 -0.04962622 -0.88317931 0.46640277 0
-0.02106154 0.5 -0.018652081 -0.0025094482 0.99999368 0.0025094482 0
0.22214574 -0.3968327 0.5 -0.10666475 -0.10666473 0.98855722 0
-0.27693403 -0.43047523 0.5 -0.46328881 -0.46328881 0.75546473 0
0.3143155 -0.49548942 -0.5 -0.54887658 -0.57689679 -0.60491705 0
-0.17184508 -0.5 0.47362399 -0.53092778 -0.62140715 0.57616746 0
-0.5 0.31895959 0.42717278 -0.82467741 0.13809583 0.54848576 0
0.5 0.28398371 -0.30189419 0.89924204 0.28270787 -0.33382624 0
-0.5 -0.25553823 0.10803503 -0.98849982 -0.10693014 -0.10693014 0
0.5 0.29496688 0.43593174 0.80352825 -0.420917 0.420917 0
0.33489138 -0.4809956 0.5 -0.079943061 -0.079943061 0.99358857 0
-0.27466059 0.22059873 -0.5 -0.42077601 0.42077604 -0.80367607 0
-0.5 -0.39206877 -0.45828477 -0.61330307 -0.55850667 -0.55850667 0
-0.5 0.35623741 -0.13860703 -0.7858749 0.54189372 -0.29791257 0
0.15434271 0.5 -0.44427329 -0.37829906 0.7383514 -0.55832523 0
-0.5 0.33744478 -0.27146065 -0.77600449 0.54593539 -0.31586629 0
-0.12619448 0.049661398 0.5 -0.092073828 -0.092073828 0.99148625 0
-0.5 -0.4449017 -0.49755728 -0.57934034 -0.57635266 -0.57635266 0
-0.5 0.43714863 -0.094112515 -0.68929619 0.56892312 -0.44855002 0
-0.28714967 -0.5 0.4620887 -0.52013052 -0.63101518 0.57557285 0
0.17204666 0.5 0.41195264 -0.14809683 0.97782141 0.14809686 0
0.5 0.26038826 0.10567278 0.86865985 0.48495293 0.10124601 0
0.5 0.0078139901 0.33741847 0.81465042 -0.41008815 0.41008815 0
0.5 0.18333527 -0.00087374449 0.90972966 0.40096048 -0.10780874 0
0.37565231 -0.41186208 0.5 -0.020248886 -0.020248886 0.99958992 0
0.057930052 -0.5 0.43785352 -0.4044995 -0.72092611 0.56271279 0
-0.26333219 -0.5 0.40604258 -0.42668575 -0.70537239 0.56602907 0
0.048901856 -0.5 -0.10666716 -0.04986446 -0.99751043 -0.04986446 0
0.16512072 0.5 -0.3330161 -0.0012185709 0.89418262 -0.44770062 0
0.5 0.090620518 -0.35048991 0.81606877 0.12600888 -0.56405103 0
0.3666364 0.5 0.045208633 0.61377639 0.78483337 -0.085528485 0
-0.16159511 0.5 -0.070764422 -0.11670182 0.98628676 0.11670182 0
-0.20805323 0.45167232 0.5 -0.495469 0.57379711 0.65212524 0
0.34629333 -0.072653115 -0.5 0.56636661 -0.12418817 -0.81474292 0
-0.18390381 0.5 -0.12895566 -0.079460181 0.99366611 0.079460159 0
0.019000769 0.30845317 0.5 -0.098518275 0.48400897 0.86949962 0
-0.19676256 -0.5 0.011375785 -0.22225043 -0.94932055 -0.22225043 0
0.5 -0.41259176 0.21558949 0.80300683 -0.42141432 0.42141432 0
0.094641447 -0.36077186 0.5 -0.17703201 -0.17703204 0.96815252 0
0.24451792 -0.38731933 0.5 -0.086847015 -0.086847037 0.9924289 0
0.5 0.33658439 -0.1896109 0.89877677 0.43779287 -0.023191012 0
0.5 -0.33156323 -0.41460651 0.74194771 0.036234923 -0.66947782 0
-0.36522132 0.5 -0.40700054 -0.44641128 0.69090253 -0.56865692 0
0.5 0.056721956 -0.11756262 0.89491457 0.26970097 -0.35551268 0
-0.17536354 0.5 0.33460253 -0.37352729 0.84909052 0.37352726 0
0.27938968 0.011674225 0.5 0.52756578 0.15394197 0.83544976 0
-0.5 -0.23672721 0.11630648 -0.99217176 -0.088304058 -0.088304058 0
0.5 0.304052 0.0056455135 0.86598939 0.48787007 0.10975078 0
0.38198039 0.5 -0.22722027 0.53565806 0.83138824 -0.14786507 0
-0.5 0.081306696 -0.19086802 -0.97808218 -0.14723319 -0.14723322 0
-0.5 0.11229545 0.038412988 -0.91150314 0.34012881 0.23124552 0
-0.35663271 0.074357748 0.5 -0.40610683 -0.40610683 0.81862962 0
-0.46742386 0.5 -0.0073968172 -0.55020607 0.62812936 0.55020607 0
0.098505974 0.5 0.40968642 -0.19806711 0.95996821 0.19806711 0
-0.5 0.19058585 -0.34704643 -0.90203059 -0.30523837 -0.3052384 0
0.34293455 0.5 0.26450753 0.62950814 0.77364451 -0.072068207 0
0.48478031 0.38374674 0.5 0.6587075 0.046137791 0.75098312 0
-0.0047092736 0.14860061 -0.5 -0.13168032 0.13168035 -0.98250723 0
-0.5 0.37328237 0.36974341 -0.90598446 0.30756572 0.29085305 0
-0.5 0.46891892 -0.089630246 -0.63586587 0.57522315 -0.51458043 0
-0.25315315 0.5 -0.40473306 -0.42237499 0.70845336 -0.56541419 0
0.46672356 -0.5 0.16867167 0.67033154 -0.74121481 0.035441652 0
-0.5 -0.19003844 0.1238656 -0.997473 -0.050236464 -0.050236464 0
0.3665784 -0.2767809 -0.5 0.4655748 -0.19844869 -0.86247218 0
-0.5 0.16000491 0.13725489 -0.90774781 0.31578588 0.2761761 0
-0.5 0.075645864 0.044375829 -0.90802425 0.31718737 0.27364951 0
-0.14786133 0.5 0.10525829 -0.24763972 0.93666917 0.2476397 0
0.31738138 -0.18801659 -0.5 0.47082183 -0.19481409 -0.86045009 0
0.5 0.34050283 -0.32851699 0.90808266 0.31748822 -0.27310619 0
-0.11533648 0.5 0.45984995 -0.36602721 0.85559815 0.36602718 0
-0.025070667 0.5 0.36259145 -0.26818192 0.92528754 0.26818192 0
0.13337225 -0.5 -0.41262037 -0.17500752 -0.9688884 -0.17500752 0
-0.064543366 -0.5 0.32398647 -0.19367957 -0.83532858 0.51450408 0
0.21082318 -0.090985775 -0.5 0.41951078 -0.22938909 -0.87828892 0
0.48655415 -0.42705935 -0.5 0.63788283 -0.064761475 -0.76740569 0
0.081689611 -0.067799985 0.5 0.40712231 0.2374264 0.88197511 0
0.25203913 -0.36567396 -0.5 0.03608419 -0.43243042 -0.90094501 0
0.080539256 0.13258088 0.5 0.24872105 0.33080575 0.91033256 0
-0.5 -0.16869619 -0.47802514 -0.60263175 -0.56428492 -0.56428492 0
-0.44134194 0.5 -0.36629915 -0.34158143 0.87558228 0.34158143 0
-0.20961642 0.33393085 0.5 -0.28688371 0.53930908 0.7917344 0
-0.47253817 -0.050665021 -0.5 -0.55238271 0.55238271 -0.62429684 0
-0.15038246 -0.47782406 0.5 -0.39329118 -0.39329121 0.83105004 0
0.5 -0.13569167 0.20795715 0.88581711 -0.32812193 0.3281219 0
-0.5 0.23514044 0.25925869 -0.89863819 0.2807923 0.3370536 0
-0.068313777 0.14987332 -0.5 -0.19399342 0.19399343 -0.96163046 0
0.28604159 -0.20836589 -0.5 0.408398 -0.23660409 -0.88160622 0
-0.2753047 -0.5 -0.046251833 -0.35925153 -0.8613227 -0.3592515 0
0.49364293 0.10310602 0.5 0.70141053 0.0056622857 0.71273512 0
0.23082367 -0.12114879 -0.5 0.41804877 -0.23034361 -0.87873602 0
-0.039576307 -0.5 0.25312585 -0.039282609 -0.88574219 0.4625124 0
0.46818548 -0.067941964 0.5 0.6868977 0.019793367 0.72648448 0
-0.5 0.18868804 -0.49567509 -0.58804482 -0.57192802 -0.57192802 0
-0.15084076 0.5 0.18113935 -0.29320997 0.90997565 0.29321 0
-0.5 0.088409066 -0.14767128 -0.9940356 -0.077114187 -0.077114187 0
0.16549656 -0.5 0.27381808 0.1365546 -0.91167438 0.38755992 0
-0.23986614 -0.5 -0.43033534 -0.44043076 -0.78233081 -0.44043076 0
-0.5 0.083567977 -0.20318419 -0.97300816 -0.16317968 -0.16317968 0
-0.33306146 0.23655283 0.5 -0.21374767 -0.21374767 0.95321769 0
0.5 0.044523299 -0.15224963 0.88508141 0.24452724 -0.39602691 0
-0.5 -0.26696843 -0.036369771 -0.94427019 -0.23275933 -0.23275933 0
-0.49484706 -0.5 0.10506046 -0.57226294 -0.58739275 -0.57226294 0
0.5 -0.49421108 -0.1411618 0.95641857 -0.20647459 0.20647459 0
0.5 -0.04475987 0.27905303 0.85822564 -0.36293858 0.36293858 0
0.5 0.29440397 -0.15757674 0.90729952 0.41225335 -0.082792841 0
0.25172132 -0.5 -0.31990623 -0.043303728 -0.99812299 -0.043303728 0
-0.5 -0.48850882 -0.42146063 -0.63828987 -0.54432803 -0.54432803 0
0.17044032 -0.11206985 0.5 0.49075288 0.18079141 0.85233569 0
-0.5 0.048613131 0.41062996 -0.77145725 0.069491096 0.63247502 0
0.42984095 -0.45466861 -0.5 0.11606672 -0.3971574 -0.9103815 0
-0.5 0.13596034 0.27880323 -0.86405611 0.20133911 0.46137786 0
-0.48357689 -0.47699496 0.5 -0.57077116 -0.57077116 0.59028846 0
0.41717231 -0.5 -0.37535203 0.67252469 -0.73932064 0.03339795 0
-0.5 -0.26244569 0.21578735 -0.99900526 -0.03153218 -0.03153218 0
0.026045203 -0.5 -0.25853163 -0.17533109 -0.96877152 -0.1753311 0
-0.4048391 0.13088349 -0.5 -0.51052755 0.51052755 -0.69189823 0
0.5 0.16159093 0.3009364 0.93888122 -0.24341524 0.24341527 0
-0.065860063 -0.5 0.29751104 -0.14172542 -0.85523701 0.49848124 0
-0.28749341 -0.098384142 -0.5 -0.28232479 0.28232479 -0.91683453 0
-0.5 0.43814993 0.076047838 -0.72550392 0.56163216 -0.39776036 0
0.35480052 0.01648888 0.5 0.59102327 0.10442195 0.79986721 0
-0.32060242 0.5 -0.41746908 -0.45512062 0.68431491 -0.56971776 0
-0.33984786 0.17741078 0.5 -0.30384094 -0.30384099 0.90297365 0
0.5 0.18261358 -0.13092598 0.91088837 0.33489689 -0.24109456 0
0.28176892 -0.5 -0.019501507 0.5409742 -0.82864821 0.14383702 0
-0.5 0.1659953 0.45087808 -0.75604391 0.051787511 0.65246892 0
-0.20161223 0.5 0.4969182 -0.42880401 0.7951442 0.42880395 0
0.0027781725 0.5 0.30703184 -0.22068575 0.95005029 0.22068575 0
-0.33539301 0.5 -0.049405396 -0.3884429 0.83559805 0.38844293 0
0.04738161 0.23729488 0.5 0.06739109 0.41903687 0.90546483 0
-0.060881257 -0.5 -0.23136216 -0.2354324 -0.94294387 -0.23543239 0
-0.43243378 0.085353613 0.5 -0.50441635 -0.50441635 0.70080554 0
-0.5 0.084736973 0.2411716 -0.86650032 0.20587869 0.454743 0
-0.21418893 -0.5 0.12699819 -0.1300869 -0.98293167 -0.1300869 0
-0.3791565 -0.48321798 0.5 -0.5242101 -0.5242101 0.67112404 0
-0.079905868 0.022118211 0.5 -0.064089119 -0.064089119 0.99588412 0
0.5 0.48354974 0.0042673647 0.61414641 0.57653284 0.53891927 0
0.48985261 0.5 -0.165636 0.69625795 0.71771151 -0.010726778 0
-0.46364975 0.5 -0.43867964 -0.24042526 0.94042081 0.24042527 0
-0.0065054893 0.33730173 -0.5 -0.24265839 0.24265842 -0.939273 0
-0.43034756 -0.5 0.14879489 -0.48596701 -0.72641045 -0.48596698 0
0.026059926 0.5 -0.11425954 0.21792021 0.91215199 -0.34711587 0
-0.12916496 -0.5 0.49325496 -0.56488508 -0.58963853 0.57726181 0
-0.029449195 0.5 -0.28019571 -0.081090353 0.87467325 -0.47788179 0
0.053407129 0.5 0.0094926953 0.34997115 0.89608103 -0.27305496 0
-0.46335772 0.34679145 0.5 -0.46360731 -0.46360731 0.75507385 0
0.0058130026 -0.30128419 0.5 -0.21531658 -0.21531655 0.95251107 0
-0.34937847 0.5 0.0037383437 -0.42898431 0.79494953 0.42898431 0
0.014817223 0.5 -0.1272302 0.19310263 0.91280758 -0.35985246 0
-0.49907815 0.00677073 -0.5 -0.57664907 0.57664907 -0.57875013 0
0.33217341 0.5 -0.15231842 0.51444161 0.84176302 -0.16366069 0
-0.5 0.083894074 -0.26547962 -0.93016756 -0.25960389 -0.25960389 0
-0.42837411 -0.5 0.31596947 -0.37337795 -0.84922177 -0.37337795 0
-0.019056797 -0.28750563 0.5 -0.22869369 -0.22869372 0.94625491 0
-0.16850522 0.067029953 -0.5 -0.2457896 0.2457896 -0.93764329 0
-0.5 -0.024310887 0.11717913 -0.88118058 0.23566036 0.40985981 0
-0.5 -0.1899296 -0.33272982 -0.75732839 -0.4617649 -0.4617649 0
0.31687832 -0.5 -0.26325661 0.61567229 -0.78352046 0.083924115 0
0.5 0.054923415 -0.34730369 0.81070495 0.1187052 -0.57329458 0
0.5 0.27661616 -0.13551694 0.90828615 0.40807965 -0.092126787 0
-0.086025923 0.5 -0.43286449 -0.43747735 0.69753259 -0.56750494 0
0.46037969 0.5 -0.21049735 0.6564194 0.75285363 -0.048217095 0
0.31211668 -0.061886489 -0.5 0.53726906 -0.14664745 -0.83056402 0
-0.025032163 0.28495508 0.5 -0.086781189 0.47990069 0.87302023 0
0.40435195 0.049435019 -0.5 0.6419214 -0.061201368 -0.76432413 0
-0.5 0.33169574 -0.45883667 -0.75878972 -0.46056387 -0.46056384 0
0.5 -0.37890679 0.12568447 0.86899698 -0.34988871 0.34988871 0
-0.30429459 0.5 0.2790693 -0.45681196 0.76331222 0.45681202 0
-0.44475871 0.5 0.059669614 -0.53559303 0.65290135 0.53559303 0
-0.20646459 0.050002456 -0.5 -0.27931246 0.27931246 -0.91867781 0
-0.5 -0.17195046 0.1192258 -0.99833667 -0.040767044 -0.040767074 0
-0.13114911 -0.5 -0.22324404 -0.2949326 -0.9088617 -0.2949326 0
-0.3127358 -0.3832587 -0.5 -0.40061581 -0.56209415 -0.72357243 0
0.5 -0.1035955 0.40507549 0.69663382 -0.5072974 0.5072974 0
0.28530222 -0.5 0.49424171 -0.54585975 -0.6077351 0.57679743 0
-0.29424632 0.5 0.39780718 -0.46917829 0.74816006 0.46917823 0
-0.035591274 -0.3561123 -0.5 -0.24463154 -0.52870905 -0.81278658 0
-0.5 0.30510986 0.21360922 -0.91181827 0.38619861 0.13942099 0
-0.5 -0.1250487 -0.4632073 -0.62257373 -0.55335432 -0.55335432 0
-0.062978983 0.5 0.48795044 -0.33922848 0.87740993 0.33922845 0
0.32745594 -0.045702815 -0.5 0.55793393 -0.13079017 -0.81951427 0
0.40704033 0.5 0.32995641 0.66594225 0.74495643 -0.039507121 0
0.089163661 -0.5 -0.42650926 -0.21230277 -0.95386326 -0.21230277 0
-0.5 -0.43235493 -0.38688833 -0.66993427 -0.52497053 -0.52497053 0
-0.21228346 0.48731035 0.5 -0.55654311 0.57710606 0.59766901 0
0.34018922 0.43992299 -0.5 -0.055851664 0.055851664 -0.9968757 0
0.16157389 0.5 -0.18772835 0.26990917 0.90841907 -0.31925496 0
0.12859851 0.5 -0.34212109 -0.071056873 0.87750202 -0.47427943 0
-0.3232249 0.44106215 -0.5 -0.49152282 0.49152282 -0.71889549 0
-0.21427387 -0.5 -0.30074286 -0.39373967 -0.83062524 -0.39373967 0
0.38264602 0.43295556 0.5 0.060200509 0.42215988 0.90452027 0
-0.14739013 0.5 0.18608391 -0.29233056 0.91054142 0.29233059 0
-0.4781222 0.20021015 0.5 -0.54720259 -0.54720259 0.63335514 0
0.40415013 0.26385677 -0.5 0.66079438 -0.044234004 -0.74926239 0
0.062104285 0.38204652 0.5 -0.24377371 0.52848262 0.81319147 0
0.43225664 0.3635214 0.5 0.50863707 0.16790648 0.84445 0
-0.28351486 0.034392655 -0.5 -0.36324629 0.36324632 -0.85796511 0
-0.14731678 -0.5 0.047015309 -0.12260909 -0.98485219 -0.12260909 0
0.5 -0.33862531 0.38587129 0.68096763 -0.51782382 0.51782382 0
0.5 0.18362296 -0.16526729 0.90737158 0.31393397 -0.27950361 0
0.5 0.47823212 -0.37452444 0.74822545 0.55548954 0.36275354 0
0.47537202 0.5 -0.32181251 0.65589559 0.75327945 -0.048691921 0
0.5 -0.061031342 0.028682172 0.99253249 -0.086253233 0.086253233 0
0.5 -0.22732934 -0.050441623 0.98136967 -0.1358556 0.13585563 0
0.5 -0.45180637 -0.46142247 0.72121453 0.014325408 -0.69256371 0
0.1343004 -0.5 0.033577204 0.38754719 -0.88733333 0.2498931 0
-0.19052523 -0.5 -0.15718633 -0.32060558 -0.89130473 -0.32060558 0
0.38095042 0.5 0.16467643 0.63994443 0.76583862 -0.062947124 0
-0.5 0.33500493 -0.2624225 -0.77996629 0.54435825 -0.30875021 0
-0.088305265 0.45047528 0.5 -0.47567189 0.57197112 0.66827029 0
-0.5 0.42554623 -0.080873668 -0.7099691 0.56510425 -0.42023942 0
-0.25409037 0.29097778 0.5 -0.23439167 0.52597713 0.81756264 0
-0.5 0.12155724 0.36596936 -0.81341213 0.12237082 0.56867057 0
-0.21565998 0.36361945 0.5 -0.34116572 0.55127394 0.76138222 0
0.5 -0.28271294 -0.3389942 0.77371913 0.072156504 -0.62940615 0
-0.5 0.052487046 0.2976875 -0.8355152 0.15404105 0.5274331 0
-0.20623097 0.12378696 -0.5 -0.32058221 0.32058221 -0.89132154 0
-0.37526682 -0.10961819 0.5 -0.48259833 -0.48259833 0.73088825 0
0.34800428 0.29135841 0.5 0.4105424 0.23521912 0.88098061 0
0.15182471 0.5 0.28216505 -0.090151951 0.99183935 0.090151951 0
-0.5 0.12676197 -0.390782 -0.79082978 -0.43277496 -0.43277493 0
-0.5 0.33690292 -0.16393638 -0.79910582 0.53584397 -0.27258208 0
-0.5 0.3836607 -0.069031924 -0.77156413 0.54763466 -0.32370523 0
-0.5 0.45748866 0.030286074 -0.67452925 0.57114613 -0.46776307 0
-0.5 0.11901778 0.049136162 -0.91135651 0.33879295 0.23377062 0
-0.5 -0.13117296 -0.10371459 -0.95150733 -0.21752442 -0.21752444 0
-0.17193978 0.28341693 0.5 -0.18154804 0.51089954 0.84025103 0
-0.093791664 -0.5 0.43536377 -0.44468674 -0.69219238 0.56843954 0
-0.29309517 0.5 0.050075412 -0.38164213 0.84184241 0.38164213 0
0.44308209 -0.14082241 0.5 0.67470676 0.03135632 0.73741943 0
-0.5 0.29755473 0.20004544 -0.91163093 0.38795444 0.13572198 0
0.24155661 0.44688591 0.5 -0.32237086 0.54734826 0.77232569 0
0.047399774 -0.5 0.058154017 0.29221603 -0.90580702 0.30679554 0
-0.41501486 -0.15519333 0.5 -0.52093065 -0.52093065 0.67621189 0
-0.5 0.30487591 -0.48216188 -0.64738375 -0.53893149 -0.53893149 0
0.25177032 -0.066173732 -0.5 0.47640929 -0.19091789 -0.85824502 0
0.21807075 0.5 0.2108947 0.55088061 0.82338667 -0.136253 0
-0.17498517 -0.023970306 -0.5 -0.18215969 0.18215969 -0.96624821 0
0.36441383 -0.5 0.33371821 0.37470412 -0.89054662 0.25792122 0
-0.36942169 -0.5 0.12960625 -0.39640507 -0.82808578 -0.39640507 0
0.5 0.065455973 -0.31617892 0.82929409 0.14478144 -0.53973126 0
-0.0031362176 0.34421128 0.5 -0.19616395 0.51523185 0.83429968 0
-0.018167913 -0.5 -0.34811717 -0.25663367 -0.93181449 -0.25663367 0
0.43082523 0.5 0.31758273 0.67628592 0.7360332 -0.029873671 0
0.5 -0.15033686 0.075989187 0.95837235 -0.20189415 0.20189415 0
0.31490028 0.5 0.47157502 -0.087033652 0.99239624 0.087033652 0
0.12298462 0.5 -0.23681444 0.15082945 0.91229993 -0.38073522 0
0.14171565 0.45736307 0.5 -0.4318583 0.56674796 0.70163751 0
0.5 -0.20305732 -0.017540157 0.97767031 -0.14859495 0.14859495 0
0.5 -0.00085395575 0.078062773 0.99276572 -0.084900931 0.084900931 0
-0.5 -0.37832499 -0.28377333 -0.75988704 -0.45965841 -0.45965844 0
-0.5 0.48049629 0.31844157 -0.69084257 0.56866688 -0.44649121 0
0.44305217 0.5 0.054732442 0.66949004 0.74193734 -0.036223684 0
-0.13487977 -0.5 0.075532556 -0.074741587 -0.994398 -0.074741587 0
-0.5 0.34608775 0.45738018 -0.79367906 0.096524552 0.60062999 0
-0.5 0.4387238 -0.43919563 -0.99998301 -0.0041242209 -0.0041242209 0
-0.5 0.19493234 -0.24280387 -0.99282897 -0.084530428 -0.084530428 0
-0.14387345 0.5 -0.36926723 -0.32547456 0.77055073 -0.54801261 0
0.5 0.062967122 -0.14884269 0.88935798 0.25489607 -0.37956583 0
-0.5 -0.45912594 -0.024540901 -0.90264726 -0.30432534 -0.30432534 0
-0.38431543 -0.18970037 0.5 -0.50197363 -0.50197357 0.70430458 0
0.5 0.45062625 -0.37440699 0.86785036 0.48585054 0.10385074 0
0.1762684 -0.5 0.19659233 0.27614895 -0.90775084 0.31580096 0
0.165209 0.5 -0.042083204 0.40945336 0.8812992 -0.23592293 0
-0.17130592 -0.1388531 0.5 -0.29196107 -0.29196104 0.91077852 0
0.5 0.2757163 -0.26029623 0.90782368 0.31616721 -0.27548924 0
0.5 0.19678748 0.10379373 0.89481419 0.44643435 -0.0019455311 0
-0.5 0.36490339 0.20375246 -0.88539171 0.46305832 -0.040724885 0
-0.025541246 0.27186546 -0.5 -0.22609946 0.22609948 -0.94750094 0
0.28289586 0.5 -0.41725469 -0.11653014 0.86380386 -0.49016702 0
-0.29700238 -0.5 0.28072286 -0.038497824 -0.9985168 -0.038497824 0
-0.079628021 -0.5 0.28364944 -0.12496547 -0.86101377 0.49298966 0
-0.5 0.12263793 0.20172483 -0.88800764 0.25153923 0.38492915 0
0.021944523 -0.5 -0.17862719 -0.12833917 -0.98339111 -0.12833917 0
0.5 -0.055030286 0.098771632 0.97509378 -0.15683144 0.15683144 0
-0.17962702 -0.5 0.27080435 -0.16462873 -0.84683645 0.5057326 0
0.20182517 -0.13049132 -0.5 0.37815586 -0.25577518 -0.88970619 0
-0.48381275 0.5 0.44043273 -0.57061094 0.59059829 0.57061094 0
-0.5 -0.48336145 0.027519286 -0.91977465 -0.27750179 -0.27750179 0
0.4583458 -0.5 -0.31431216 0.68868375 -0.72483635 0.018076323 0
0.5 -0.06090498 -0.19131809 0.85446006 0.18438162 -0.48569682 0
0.30417478 -0.23660183 0.5 0.60514796 0.092770658 0.79068929 0
0.24305564 0.5 0.20625556 0.56463665 0.81573457 -0.12554894 0
-0.17932969 -0.5 0.0056199431 -0.20406005 -0.95745444 -0.20406005 0
-0.5 0.37717748 -0.099327862 -0.77190959 0.54750502 -0.32310039 0
0.018246472 0.5 0.33133954 -0.22043142 0.95016843 0.2204314 0
0.5 -0.42351693 -0.031568766 0.93449205 -0.25171882 0.25171882 0
-0.05949831 -0.5 0.011569262 -0.051459488 -0.99734843 -0.051459488 0
-0.36765659 -0.20390713 0.5 -0.49143523 -0.49143529 0.71901518 0
-0.11235541 -0.5 -0.35735139 -0.33286062 -0.88227397 -0.33286062 0
-0.03701812 -0.124318 -0.5 0.15178339 -0.3802751 -0.91233361 0
0.5 0.067500472 0.047805928 0.91258538 0.35384899 -0.20488733 0
-0.48653305 -0.16061056 0.5 -0.56934333 -0.56934333 0.59303999 0
-0.5 -0.36111051 -0.26598209 -0.77713716 -0.44500434 -0.44500437 0
0.5 -0.4475708 -0.28348619 0.99113446 -0.093948334 0.093948357 0
0.5 0.16573182 0.12032305 0.90055543 0.43343383 -0.033687752 0
-0.44125882 0.5 0.23706958 -0.54421943 0.63847506 0.54421937 0
0.38511282 -0.40902758 0.5 -0.013327008 -0.013327008 0.99982232 0
-0.17725682 -0.15518773 0.5 -0.30637941 -0.30637938 0.9012565 0
0.5 -0.29449052 -0.047403216 0.9677273 -0.17819078 0.17819078 0
0.098385394 -0.43636388 0.5 -0.21025674 -0.21025674 0.95476925 0
-0.42916259 -0.5 0.064501941 -0.50456411 -0.70059276 -0.50456411 0
0.32824713 -0.5 0.31158805 0.33600616 -0.8988356 0.28141475 0
0.5 0.030341327 0.41547984 0.71320015 -0.4956539 0.4956539 0
-0.47133812 -0.5 0.22019684 -0.53386664 -0.65572321 -0.53386664 0
-0.21557945 0.24340916 -0.5 -0.37757024 0.37757021 -0.84550661 0
0.20597872 -0.014891356 -0.5 0.46202344 -0.20089555 -0.86381447 0
0.43860182 0.48524877 0.5 -0.27920377 0.5374642 0.79572463 0
0.20365255 0.013820589 0.5 0.46056181 0.20189942 0.86436069 0
0.10784823 -0.39484364 0.5 -0.18438046 -0.18438046 0.96540552 0
-0.087165296 -0.012699902 -0.5 -0.082166962 0.082166962 -0.99322569 0
-0.5 0.35496938 0.17462367 -0.88291591 0.46678975 -0.050663549 0
-0.5 -0.30032563 0.030326605 -0.96120852 -0.19503619 -0.1950362 0
-0.5 0.2340323 -0.11476833 -0.87955123 0.47154316 -0.063535042 0
0.15083081 0.12134999 -0.5 0.48075679 -0.18786758 -0.85649204 0
-0.33302814 -0.5 -0.20379919 -0.46468374 -0.75374925 -0.4646838 0
-0.21914378 0.5 0.14959347 -0.34570742 0.87233752 0.34570739 0
-0.20325041 0.5 -0.36986572 -0.34812942 0.75720769 -0.55266857 0
0.5 0.12466335 0.36745852 0.82843506 -0.39603996 0.39603993 0
0.5 0.17575872 0.43290439 0.73253715 -0.4813467 0.48134667 0
-0.087789178 -0.34445429 -0.5 -0.24948557 -0.52998221 -0.81047881 0
0.5 0.18749559 -0.074169517 0.91281897 0.36990064 -0.17301768 0
-0.3353402 0.5 0.063021719 -0.43287307 0.79072243 0.43287307 0
0.5 -0.19051528 0.074325621 0.94804996 -0.22494596 0.22494595 0
0.16699529 -0.33747816 -0.5 -0.010793767 -0.45149982 -0.89220589 0
0.45165575 0.5 0.21435934 0.68259412 0.73040664 -0.023906231 0
0.5 0.056660444 -0.1512762 0.88760269 0.25054833 -0.38650602 0
0.5 -0.23708177 -0.37055781 0.76478618 0.061733134 -0.64131987 0
0.1996029 0.5 -0.41505831 -0.22773553 0.82060015 -0.52416784 0
0.21136707 -0.5 -0.16948545 0.53630477 -0.83105803 0.1473766 0
-0.04098025 0.42554384 0.5 -0.40824315 0.56329852 0.71835387 0
-0.388695 -0.20283502 -0.5 -0.38263899 0.38263899 -0.84093678 0
-0.086584508 -0.5 -0.22606456 -0.2557964 -0.93227488 -0.25579643 0
0.2626 -0.48173112 0.5 -0.12368787 -0.12368789 0.98458248 0
-0.5 0.18253547 0.44337666 -0.76561373 0.062687382 0.64023894 0
0.078151733 0.5 -0.45355913 -0.44312716 0.69335461 -0.56824088 0
-0.33724493 -0.4438861 -0.5 -0.49699211 -0.57392317 -0.65085417 0
0.5 -0.40986693 -0.30127865 0.99599707 -0.063205414 0.063205414 0
-0.5 -0.052003622 -0.14345521 -0.9567014 -0.20581834 -0.20581834 0
-0.10312709 -0.5 -0.25721422 -0.2856248 -0.91478789 -0.28562483 0
-0.3592419 -0.5 0.22148895 -0.29796138 -0.90688366 -0.29796138 0
-0.5 -0.38600582 0.48559874 -0.71281809 0.0057463478 0.70132542 0
-0.5 0.25584823 -0.3935113 -0.87427908 -0.34324631 -0.34324634 0
0.4790448 -0.1399346 -0.5 0.68609494 -0.020563209 -0.72722137 0
0.060208917 0.5 0.068216681 -0.0070939008 0.99994969 0.0070939008 0
0.31353909 -0.34877241 0.5 -0.021186303 -0.021186303 0.999551 0
0.47312528 0.5 0.36434871 0.69598776 0.71796942 -0.010990862 0
0.5 0.38851911 -0.27110261 0.89201009 0.45186362 0.011717185 0
0.5 -0.12352413 -0.092930079 0.99936807 -0.025134934 0.025134934 0
0.080076337 -0.5 -0.15635228 -0.061457194 -0.99621588 -0.061457194 0
0.48685628 0.5 0.0060677528 0.6978361 0.71619868 -0.0091813076 0
-0.012975395 0.077541441 -0.5 -0.084419243 0.084419243 -0.99284786 0
0.29031688 0.5 -0.14268264 0.47019422 0.86069435 -0.19525008 0
0.41678983 -0.33936715 -0.5 0.49943483 -0.1745729 -0.84858066 0
0.41882145 0.5 -0.49036658 -0.43228245 0.70132935 -0.5668059 0
0.34539419 0.5 -0.056291938 0.57105929 0.81201953 -0.12048011 0
-0.5 0.054629624 -0.48895967 -0.59642792 -0.56757104 -0.56757104 0
-0.20979422 0.011289716 -0.5 -0.25697866 0.25697863 -0.93162429 0
-0.39038837 0.5 0.2574985 -0.51358253 0.68736166 0.51358253 0
0.29887903 0.5 0.094228864 0.57521909 0.80956388 -0.11717241 0
0.33068943 0.11802894 -0.5 0.60183972 -0.095521979 -0.79288363 0
-0.21949205 0.5 0.002864629 -0.26341489 0.92802221 0.26341489 0
-0.050156027 -0.027570307 -0.5 -0.024473272 0.024473272 -0.99940091 0
-0.5 -0.12040189 0.027719378 -0.99354643 -0.080204375 -0.080204375 0
-0.5 -0.22887939 -0.10116196 -0.92398578 -0.27041659 -0.27041659 0
0.5 -0.25299579 -0.17437661 0.99697995 -0.054913588 0.054913614 0
0.44284177 -0.5 0.28819948 0.60350823 -0.79178035 0.094136037 0
0.37971959 -0.5 0.068843424 0.59978628 -0.79423183 0.097222812 0
-0.5 0.071402371 0.36870235 -0.80143499 0.10645148 0.58853203 0
-0.15061688 0.25699967 0.5 -0.1247128 0.49290565 0.86109853 0
-0.071527123 -0.15607089 0.5 -0.20118298 -0.20118299 0.95867139 0
0.26017067 -0.5 0.19153023 0.3902522 -0.88662642 0.24818709 0
0.5 -0.35085469 0.0051972866 0.93657786 -0.24781224 0.24781226 0
-0.084812284 0.5 -0.16132706 0.066373505 0.90533447 -0.4194805 0
-0.1107899 -0.045669258 0.5 -0.16285868 -0.16285865 0.97311568 0
-0.5 -0.058349192 0.23311633 -0.84082139 0.16218878 0.51644385 0
0.31806463 0.5 -0.26708603 0.3887507 0.88702017 -0.24913475 0
-0.3585003 -0.5 0.41431808 -0.45608863 -0.68357503 0.56983185 0
-0.5 -0.19427001 -0.19147938 -0.87842703 -0.33790973 -0.3379097 0
0.16028368 -0.5 0.16916585 0.2912631 -0.90593135 0.30733413 0
-0.42565751 -0.026095778 0.5 -0.51525992 -0.51525992 0.68484628 0
-0.5 -0.48747844 0.071607828 -0.93564224 -0.24957322 -0.24957322 0
0.18829799 -0.5 -0.27526563 -0.05921315 -0.99648756 -0.05921315 0
0.10310113 0.42654669 0.5 -0.34810254 0.55266321 0.75722378 0
0.4557938 0.5 0.47317612 -0.0090106083 0.99991882 0.0090106083 0
-0.095984191 0.5 0.20618823 -0.2540099 0.93325126 0.25400987 0
0.32511255 -0.077988148 0.5 0.59008455 0.10518759 0.80045968 0
0.38605988 -0.032848299 -0.5 0.61406213 -0.085286967 -0.78463608 0
0.24843919 0.48285687 -0.5 -0.13298404 0.13298404 -0.98215604 0
-0.5 0.14739919 -0.41612738 -0.75418013 -0.46433404 -0.46433404 0
0.25792772 -0.0017704964 0.5 0.5145545 0.16357781 0.84171015 0
0.5 0.47420961 0.014606595 0.63310379 0.5754264 0.51774907 0
0.19841325 -0.24365193 -0.5 0.2362375 -0.33748421 -0.91120595 0
-0.087902427 0.5 0.37604353 -0.32093358 0.89106858 0.32093355 0
0.04413271 0.26191497 -0.5 -0.16229752 0.16229755 -0.97330314 0
0.19471222 -0.5 -0.47148228 -0.16170716 -0.97349977 -0.16170716 0
0.5 -0.43432736 0.19964504 0.80916554 -0.41548225 0.41548228 0
0.25190139 0.5 0.29314405 -0.026674494 0.99928814 0.026674494 0
0.46989912 -0.5 -0.37476021 0.69478661 -0.71911311 0.012163226 0
0.055308521 -0.42945969 0.5 -0.23737025 -0.23737025 0.94197172 0
-0.019210041 -0.36408371 -0.5 -0.25293711 -0.53087878 -0.80882043 0
0.5 -0.091499686 0.11364859 0.95869392 -0.20112938 0.20112939 0
-0.1647642 0.19169331 -0.5 -0.31159213 0.31159216 -0.89767516 0
0.5 -0.30836236 -0.29473978 0.99992782 -0.0084979655 0.0084979655 0
-0.31745374 0.48362786 0.5 -0.55392778 0.57704175 0.60015577 0
-0.26994461 0.29532188 0.5 -0.24802841 0.52960151 0.81117457 0
0.35703927 -0.43593186 -0.5 -0.048312835 -0.46591198 -0.88351119 0
-0.34446579 -0.5 -0.43677926 -0.5028441 -0.70306158 -0.5028441 0
0.17377102 -0.10925311 -0.5 0.36677459 -0.26281959 -0.89241374 0
-0.32113177 0.5 0.26124275 -0.46595499 0.75217813 0.46595493 0
0.5 -0.094937444 -0.20873111 0.8431232 0.16580129 -0.51152056 0
-0.076990247 -0.5 0.025066674 -0.057633605 -0.99667287 -0.057633605 0
-0.37440729 0.5 -0.3369751 -0.12756795 0.98359179 0.12756795 0
-0.33272904 -0.17670304 0.5 -0.45909056 -0.45909053 0.76057339 0
0.23625112 0.32765538 -0.5 -0.058247399 0.058247399 -0.99660146 0
0.013898492 0.40762851 -0.5 -0.25789765 0.25789765 -0.93111628 0
-0.22256309 -0.26569033 -0.5 -0.17931895 -0.51022816 -0.84113735 0
-0.23112965 0.24653327 0.5 -0.15406518 0.5024246 0.85078394 0
-0.5 0.022449732 -0.4393394 -0.67420578 -0.52222919 -0.52222919 0
-0.051951766 0.5 0.15354705 -0.18037523 0.96691746 0.18037526 0
-0.17214856 0.26634175 0.5 -0.15300803 0.5020901 0.85117215 0
0.13592696 0.48711115 0.5 -0.53557777 0.57638794 0.61719817 0
0.038171291 0.45474204 -0.5 -0.25955436 0.25955436 -0.93019509 0
0.45889938 -0.5 -0.13778907 0.68379086 -0.72932279 0.022766011 0
0.15604867 -0.15014613 0.5 0.4947485 0.17793801 0.85062456 0
-0.27108344 0.5 0.099510133 -0.37804461 0.84508264 0.37804458 0
0.35328299 -0.37235105 0.5 -0.011048152 -0.011048152 0.99987793 0
-0.39075792 0.46802777 -0.5 -0.52899349 0.52899349 -0.66357499 0
-0.19754046 0.062386215 -0.5 -0.27659878 0.27659878 -0.92031848 0
-0.5 -0.22821146 0.27784473 -0.80110568 0.10602417 0.58905733 0
0.028900862 0.5 0.26308739 -0.17558362 0.9686799 0.17558359 0
0.5 0.098318398 0.035677381 0.91287094 0.36519006 -0.18249086 0
0.5 0.079869032 -0.061448038 0.90674049 0.31095439 -0.2848317 0
-0.5 0.043205023 -0.29017413 -0.88578522 -0.32816499 -0.32816496 0
-0.22830871 0.18438962 -0.5 -0.36843216 0.36843213 -0.8535313 0
0.48344111 -0.35739034 -0.5 0.66437781 -0.040948283 -0.74627435 0
-0.5 0.14798665 -0.34139657 -0.88149554 -0.33389041 -0.33389044 0
0.2040714 0.5 -0.15452737 0.35799366 0.89437878 -0.26819256 0
-0.5 -0.056861043 0.2205008 -0.84552443 0.1696237 0.50627702 0
-0.23631001 0.5 -0.26890385 -0.19127959 0.83631581 -0.5137977 0
0.37565088 0.5 0.43512985 -0.032811757 0.99892282 0.032811757 0
0.039395154 0.5 -0.023230612 0.31460673 0.90255326 -0.29397327 0
-0.43402719 -0.44038159 -0.5 -0.50093257 -0.57423925 -0.64754599 0
-0.4993127 0.5 -0.051353216 -0.57676011 0.57852888 0.57676011 0
0.48027253 -0.5 -0.4421097 0.699646 -0.71445131 0.0074026901 0
0.032061458 0.14243561 -0.5 -0.093156643 0.093156673 -0.99128389 0
-0.068083763 0.28384256 -0.5 -0.267892 0.26789203 -0.92545539 0
-0.34739721 0.29549056 0.5 -0.14237446 -0.14237446 0.97951978 0
0.5 0.36062884 -0.049917519 0.83431017 0.51522434 0.19613855 0
-0.5 0.33896708 0.14101157 -0.883614 0.46575898 -0.047904007 0
0.1764589 -0.25487339 0.5 -0.054620415 -0.054620415 0.9970122 0
-0.5 -0.060546815 -0.035703003 -0.99129468 -0.093099236 -0.093099236 0
-0.010570168 0.3564083 0.5 -0.22955342 0.52466458 0.81977576 0
0.37783396 0.13855767 -0.5 0.63512272 -0.067180783 -0.76948428 0
0.17475799 -0.21664238 -0.5 0.24649367 -0.33200425 -0.91050214 0
0.41705137 0.5 0.20924067 0.6640563 0.74654418 -0.041243896 0
0.19063538 0.5 -0.10229111 0.39009306 0.88666832 -0.24828765 0
0.5 0.45741141 -0.32909447 0.80129015 0.53476864 0.26824713 0
0.5 0.29496324 0.24195898 0.81709981 0.5262478 0.2353958 0
-0.26588222 0.35945773 0.5 -0.35007837 0.55305296 0.75602746 0
0.5 0.13175398 0.23310933 0.97546721 -0.15566592 0.15566592 0
-0.5 -0.275998 0.075666308 -0.97873175 -0.14505905 -0.14505905 0
0.5 0.29100907 -0.21988368 0.9128679 0.36629403 -0.18027985 0
0.04652974 -0.39906317 -0.5 -0.30105683 -0.54261649 -0.78417611 0
-0.17261416 -0.12660706 0.5 -0.28671128 -0.28671128 0.91410792 0
0.12986946 0.28386915 -0.5 -0.10766096 0.10766096 -0.98834109 0
0.15682796 -0.011979014 -0.5 0.42110774 -0.22834454 -0.87779683 0
0.029820323 0.25579906 0.5 0.017064655 0.44030955 0.8976838 0
-0.03636016 -0.5 0.24503428 -0.022472287 -0.88966167 0.45606697 0
0.10601294 0.5 0.24018496 -0.098692007 0.99021196 0.098692007 0
0.5 -0.097787738 0.072237641 0.97359747 -0.16141224 0.16141224 0
-0.5 0.16716003 -0.12601626 -0.89954197 0.43596002 0.02762193 0
0.29591066 0.28056854 -0.5 0.60693544 -0.091278337 -0.78949201 0
-0.5 -0.18040848 -0.3244589 -0.76791281 -0.45294037 -0.45294037 0
0.36902636 -0.5 0.49161893 -0.50073451 -0.64771301 0.57422376 0
-0.5 0.34953606 -0.47841081 -0.68645966 -0.51418543 -0.51418543 0
-0.064963639 0.1359213 0.5 0.1148803 0.39770612 0.91029251 0
0.45621103 0.46134406 -0.5 -0.0026767293 0.0026767293 -0.99999285 0
0.40564811 0.5 0.038666487 0.64149928 0.76464844 -0.061574612 0
-0.13432336 0.28793633 0.5 -0.16792236 0.50675112 0.84557992 0
-0.079745531 0.5 0.28298891 -0.27731314 0.91988844 0.27731314 0
0.5 -0.3138935 -0.15783221 0.98894179 -0.10486717 0.10486717 0
-0.5 -0.2634128 -0.14578828 -0.88801777 -0.32513416 -0.32513416 0
0.46880233 0.5 0.0084465146 0.68492979 0.7282865 -0.021678358 0
-0.22997054 0.5 0.11515191 -0.34142694 0.87570274 0.34142694 0
0.19027218 0.1424506 0.5 0.35410318 0.270556 0.89521521 0
-0.35931051 0.068422198 0.5 -0.4127335 -0.41273353 0.81197423 0
-0.47373015 -0.5 0.017820656 -0.55523336 -0.61921871 -0.55523336 0
-0.5 0.13060781 0.24389544 -0.87650371 0.22562982 0.42524403 0
-0.13686496 0.5 -0.27883369 -0.15340309 0.85102731 -0.50221521 0
-0.5 0.073304176 0.40307105 -0.77991086 0.079547904 0.62081504 0
0.24261367 -0.5 -0.39204332 -0.090659082 -0.9917469 -0.090659082 0
0.28041124 0.18287605 -0.5 0.5822354 -0.11154813 -0.80533159 0
0.5 -0.24913689 -0.014621913 0.96724647 -0.17949142 0.17949142 0
0.28394425 0.5 0.046274602 0.55133367 0.82314116 -0.13590379 0
0.19924384 -0.5 -0.30901331 -0.072396487 -0.99474496 -0.072396487 0
-0.5 -0.49748832 -0.10540235 -0.85276437 -0.3693189 -0.3693189 0
0.5 0.44903415 -0.13423818 0.7198475 0.56296027 0.40607297 0
-0.5 -0.065912664 0.36006773 -0.78557456 0.086437248 0.61269999 0
0.17604506 -0.13158476 0.5 0.50159907 0.17301212 0.84762323 0
0.5 0.39341521 0.023096561 0.77106613 0.54782087 0.32457566 0
-0.5 0.060571074 0.42156348 -0.76565444 0.062734373 0.64018577 0
0.27491981 0.5 0.42251629 -0.086302578 0.99252391 0.086302601 0
-0.13812689 0.5 -0.34808654 -0.28190765 0.79432815 -0.53811783 0
0.5 0.30992287 -0.3162418 0.90259415 0.29412198 -0.31435019 0
-0.5 0.0016722977 0.3920317 -0.77689981 0.075935774 0.62502825 0
-0.5 0.12097085 0.22162169 -0.8817023 0.23681794 0.40806642 0
0.40819663 -0.43938977 0.5 -0.016878432 -0.016878432 0.99971509 0
0.10721684 0.5 -0.028819203 0.36729053 0.89229494 -0.26250219 0
0.01297158 -0.5 0.082430184 0.23984826 -0.91097254 0.33556211 0
-0.054351777 -0.5 -0.49016112 -0.33420566 -0.88125658 -0.33420566 0
0.038883865 0.47916833 -0.5 -0.26833731 0.26833734 -0.92519736 0
0.024008185 0.36479509 0.5 -0.22620863 0.52374905 0.82128954 0
0.26346415 -0.5 0.081820369 0.47919345 -0.85712618 0.18896635 0
0.5 0.12061772 -0.1574463 0.89818245 0.27937043 -0.3394416 0
0.48032242 0.049082637 -0.5 0.69426912 -0.012667488 -0.71960407 0
0.20495772 0.30433691 0.5 0.12782049 0.3916797 0.9111799 0
0.18449622 0.5 -0.23597783 0.22968444 0.91158998 -0.34095275 0
0.43729055 -0.31442988 0.5 0.67912936 0.027192704 0.73351479 0
-0.5 0.055635899 0.37195665 -0.79667532 0.10032635 0.59602267 0
-0.37697148 -0.5 0.24023533 -0.31883341 -0.8925752 -0.31883341 0
0.42599508 0.22370741 0.5 0.60433209 0.093450509 0.79123306 0
-0.42439967 -0.5 0.11469638 -0.48709419 -0.72489893 -0.48709419 0
-0.32955623 0.5 -0.1487335 -0.31122011 0.89793324 0.31122008 0
0.19944072 0.5 -0.43534631 -0.31036863 0.77907103 -0.54471987 0
-0.23741803 0.46030089 0.5 -0.51320714 0.57513201 0.63705695 0
-0.5 0.44673818 -0.27554435 -0.65256035 0.57375342 -0.49494642 0
0.090854332 0.5 -0.13739941 0.25353217 0.90994596 -0.3282069 0
0.19048503 0.5 -0.38126543 -0.1138888 0.8646614 -0.4892751 0
-0.0016890764 0.38781047 -0.5 -0.26113561 0.26113561 -0.92930967 0
0.0096937418 -0.0024684668 -0.5 0.30709988 -0.29830793 -0.90371573 0
0.37441564 -0.5 0.37012887 0.31425831 -0.90260881 0.29417524 0
0.30240175 0.26289874 -0.5 0.60793352 -0.090443216 -0.78881991 0
-0.5 0.32447308 -0.24337453 -0.79308593 0.53869206 -0.28429818 0
-0.5 -0.069364309 0.3754797 -0.77748746 0.076638073 0.62421131 0
-0.5 -0.059874028 -0.13512585 -0.95829642 -0.20207424 -0.20207424 0
-0.33529633 0.5 0.32566035 -0.48534873 0.72723663 0.48534873 0
-0.5 -0.46833616 0.28110498 -0.98873907 -0.10581823 -0.10581825 0
0.5 -0.097738266 -0.28474814 0.81484735 0.12433109 -0.56618512 0
0.1252352 -0.17151248 0.5 -0.035642188 -0.035642218 0.99872887 0
0.062302113 0.1298452 0.5 0.23410803 0.33861411 0.9113363 0
-0.34913605 -0.5 0.070239007 -0.39733431 -0.82719463 -0.39733431 0
-0.5 -0.30032778 0.40945309 -0.74532026 0.039904423 0.66551143 0
-0.389431 -0.16702336 0.5 -0.50298005 -0.50298011 0.70286709 0
0.27107972 -0.5 0.49989462 -0.57683277 -0.57786751 0.57735014 0
0.5 0.13912225 -0.13307571 0.9054234 0.30516028 -0.29510286 0
-0.24155986 0.5 -0.10310912 -0.2024264 0.95814776 0.20242639 0
-0.27139807 -0.5 -0.38742781 -0.45316529 -0.76764733 -0.45316529 0
-0.40507936 -0.16858566 0.5 -0.51493281 -0.51493281 0.68533814 0
-0.040837228 -0.35115153 0.5 -0.27551377 -0.27551377 0.92096919 0
0.5 0.056300223 0.46867043 0.63154978 -0.54824489 0.54824489 0
-0.46842927 0.5 -0.47875822 -0.55166894 0.60229158 -0.57698023 0
-0.46133649 -0.31751502 -0.5 -0.47867206 0.47867206 -0.73603404 0
-0.40862471 0.24454588 0.5 -0.39319712 -0.39319712 0.83113903 0
0.011282682 -0.5 -0.37151432 -0.24444769 -0.93834466 -0.24444769 0
0.43667936 -0.1507653 -0.5 0.63907599 -0.063712128 -0.76650023 0
0.5 0.32539141 -0.32155132 0.90568954 0.30629063 -0.29310825 0
-0.5 -0.43042779 -0.41271079 -0.64920092 -0.53783745 -0.53783745 0
0.5 -0.26346868 -0.073584616 0.9804216 -0.13923638 0.13923638 0
0.34269774 -0.5 0.077650964 0.56102049 -0.81778604 0.12838277 0
-0.31682456 0.5 -0.12940931 -0.30527326 0.90200692 0.30527326 0
0.18519729 -0.23782218 -0.5 0.22766741 -0.34201527 -0.91169792 0
0.19814324 0.5 -0.24454439 0.23440297 0.9113186 -0.33845782 0
0.5 -0.14250985 -0.11298013 0.99944723 -0.023507506 0.023507535 0
-0.17773044 0.11569309 -0.5 -0.28608397 0.28608397 -0.91450089 0
-0.5 0.40559107 0.32543391 -0.90082312 0.43274656 0.03532999 0
-0.026207983 0.47752792 -0.5 -0.31157622 0.31157622 -0.89768618 0
0.40024006 0.5 -0.43777364 0.10011512 0.90905499 -0.40446991 0
-0.33768082 -0.5 -0.40101457 -0.49555439 -0.71333832 -0.49555439 0
-0.32948738 -0.30539256 -0.5 -0.065706901 0.065706901 -0.99567324 0
0.5 0.3459135 -0.38587657 0.88244313 0.23847574 -0.40549165 0
-0.48215348 0.5 -0.44671321 -0.40727955 0.81746352 0.40727958 0
0.20336533 -0.5 0.2309196 0.26302445 -0.90910095 0.32303825 0
-0.5 0.40822852 -0.0049842 -0.75466514 0.55349141 -0.35231769 0
0.32289878 0.5 0.28622222 0.62158108 0.77936697 -0.078892961 0
0.39653522 0.28337079 -0.5 0.65826118 -0.046544068 -0.75134933 0
-0.5 -0.25463361 0.38163114 -0.75907004 0.05520292 0.64866418 0
-0.42031533 -0.5 -0.23979622 -0.53140825 -0.65970486 -0.53140825 0
0.5 0.24589616 -0.477045 0.73791707 0.031889774 -0.67413753 0
-0.28242606 -0.5 0.26556051 -0.037257105 -0.99861091 -0.037257105 0
0.5 0.0027020574 -0.083894193 0.89258569 0.26328039 -0.36602491 0
-0.39884609 -0.5 -0.40592593 -0.5295555 -0.66267794 -0.5295555 0
-0.5 -0.27219313 -0.24949557 -0.81099367 -0.41369638 -0.41369638 0
0.17430544 0.5 0.44896677 -0.1645567 0.97254413 0.1645567 0
0.5 -0.066349149 -0.027901053 0.99876761 -0.035093836 0.035093836 0
0.2187975 -0.5 0.25870305 0.24019146 -0.91094941 0.33537897 0
-0.17847019 -0.5 0.39306748 -0.38288197 -0.73537523 0.55912858 0
0.5 -0.29894733 0.16893548 0.86294258 -0.35730243 0.35730246 0
-0.5 0.23171508 -0.29563683 -0.98219663 -0.13283442 -0.13283442 0
-0.19139928 0.15246028 0.5 -0.059138618 -0.059138618 0.99649638 0
-0.5 -0.14934868 -0.28941211 -0.8109315 -0.41375723 -0.41375723 0
-0.046604097 0.2754755 -0.5 -0.24575517 0.24575517 -0.93766129 0
-0.092777953 -0.32006145 -0.5 -0.20323987 -0.51728499 -0.83133006 0
-0.5 -0.096658051 0.1284948 -0.86640131 0.2056929 0.45501557 0
-0.5 -0.037765205 0.25788134 -0.83512753 0.15345508 0.52821732 0
0.21277249 -0.12888432 -0.5 0.39170456 -0.24726896 -0.88624245 0
0.5 0.412525 0.2199654 0.7039237 0.56631142 0.42869902 0
0.47900534 -0.5 0.2877214 0.67091054 -0.74071646 0.034902953 0
-0.082306296 0.32173526 -0.5 -0.29604417 0.29604414 -0.90813857 0
0.29446071 0.32116884 0.5 0.24594136 0.33230093 0.9105432 0
0.40372962 0.4452104 0.5 0.058465041 0.42290947 0.90428394 0
-0.5 -0.32963496 0.23446602 -0.99631822 -0.060621966 -0.060621966 0
0.24834961 0.5 -0.27494359 0.25724778 0.90962827 -0.32619026 0
-0.079398632 -0.45318907 0.5 -0.33993891 -0.33993888 0.87685978 0
-0.20182827 0.5 0.1279622 -0.31804159 0.89314014 0.31804159 0
-0.5 -0.42167404 -0.092010558 -0.87756556 -0.33902702 -0.33902702 0
-0.25017726 -0.44988996 -0.5 -0.49726924 -0.57394582 -0.65062237 0
0.33019298 -0.5 -0.44625175 -0.065054961 -0.99575889 -0.065054961 0
0.3903932 -0.5 -0.28670216 0.65546685 -0.75362748 0.049080301 0
0.22264303 0.5 0.0419873 0.50210208 0.84739953 -0.17264873 0
0.49416798 0.5 -0.4887557 0.49915677 0.84870303 -0.17477311 0
-0.5 0.16796142 0.40494007 -0.79618299 0.099698901 0.59678525 0
-0.36742753 0.5 0.35436654 -0.50835335 0.69509268 0.50835335 0
0.19097281 0.31955969 -0.5 -0.084516577 0.084516577 -0.99283129 0
0.10725719 0.32858807 -0.5 -0.15060967 0.15060967 -0.97705352 0
-0.5 0.23204651 0.26230741 -0.89693934 0.27558938 0.34576058 0
0.40781432 -0.5 0.19443673 0.59045088 -0.80022877 0.10488893 0
-0.5 -0.19847602 0.48489115 -0.71469182 0.0076470557 0.69939762 0
0.5 -0.2250585 -0.28332382 0.79948562 0.10392978 -0.59162599 0
0.36790904 0.5 -0.15701643 0.55570036 0.82075214 -0.13252591 0
0.46778217 -0.3790476 -0.5 0.60493624 -0.092947125 -0.79083055 0
0.5 -0.40312046 -0.028000057 0.93765146 -0.24577399 0.245774 0
0.069115043 0.5 0.038051486 0.38066253 0.88908523 -0.25421137 0
-0.5 0.019062161 -0.27649081 -0.88837701 -0.32464302 -0.32464302 0
-0.5 0.10347354 -0.18604726 -0.98676008 -0.11468354 -0.11468356 0
0.157299 -0.0059104562 -0.5 0.42512351 -0.22570908 -0.87654167 0
-0.35576761 -0.38617349 0.5 -0.50451297 -0.50451297 0.70066631 0
-0.27715296 -0.10978448 0.5 -0.38835433 -0.38835433 0.83568048 0
0.18299174 -0.5 0.40274376 -0.19946301 -0.83292234 0.51619267 0
0.037824988 -0.5 -0.2756198 -0.17538919 -0.96875036 -0.17538917 0
-0.5 -0.22597134 0.1073823 -0.99218231 -0.088245265 -0.088245265 0
0.29589999 -0.5 0.18260378 0.44639289 -0.8694734 0.21154028 0
0.5 0.33151722 -0.35823083 0.89302021 0.26445284 -0.36411458 0
-0.38772473 0.48954719 -0.5 -0.528705 0.528705 -0.66403472 0
0.5 0.046221197 0.41125447 0.72444135 -0.48743457 0.48743457 0
-0.26106864 -0.21946651 -0.5 -0.079577789 0.079577789 -0.99364722 0
-0.19973651 0.028730273 0.5 -0.21149813 -0.21149816 0.95422071 0
-0.025074065 0.41976309 -0.5 -0.29074219 0.29074216 -0.91155797 0
-0.16974914 -0.5 0.026593328 -0.17273372 -0.96970415 -0.17273372 0
-0.17286965 -0.5 -0.42036456 -0.39460507 -0.82980341 -0.3946051 0
0.018973678 -0.35123044 -0.5 -0.19658101 -0.51535362 -0.83412617 0
-0.090461373 -0.38453311 0.5 -0.32577756 -0.32577756 0.88754606 0
-0.39495605 0.026198089 -0.5 -0.48527023 0.48527017 -0.72734159 0
0.5 0.39907575 0.16546005 0.73040646 0.56041902 0.39043161 0
-0.30975354 -0.5 0.39753747 -0.42231813 -0.70849383 0.56540596 0
0.058992237 -0.5 0.36056882 -0.18861875 -0.83740258 0.51301068 0
0.24486887 -0.5 -0.48827958 -0.13775343 -0.98084044 -0.13775343 0
-0.1366384 -0.48201883 0.5 -0.38549384 -0.38549384 0.83832508 0
0.5 0.25341946 -0.025518179 0.89773196 0.4402011 -0.01732976 0
-0.5 -0.053085685 -0.3993606 -0.71464711 -0.49461064 -0.49461073 0
0.5 -0.33670205 -0.32014418 0.99990016 -0.0099933976 0.0099933976 0
0.17667291 -0.29470032 -0.5 0.108181 -0.40078983 -0.90976065 0
-0.41150236 0.12024826 -0.5 -0.51458281 0.51458281 -0.68586367 0
0.21792299 -0.42279166 -0.5 -0.23854819 -0.52709365 -0.81563908 0
-0.030952334 -0.5 -0.21570849 -0.19971849 -0.95928365 -0.19971851 0
-0.5 -0.33392483 -0.29757446 -0.75752944 -0.46160001 -0.46160001 0
0.1116659 0.5 0.23114574 -0.088281281 0.9921757 0.088281251 0
0.12632406 -0.5 0.16928688 0.25297081 -0.90999258 0.32851088 0
0.48338494 0.5 0.41926366 0.70067358 0.71345329 -0.006389867 0
0.5 -0.0030627847 0.0046411157 0.99994045 -0.0077206194 0.0077206194 0
-0.5 0.43131328 -0.013179541 -0.71502161 0.56403488 -0.41304812 0
0.19979542 -0.30606258 -0.5 0.11599379 -0.39719114 -0.91037613 0
-0.5 0.46910715 -0.25304127 -0.62332374 0.57605904 -0.52879441 0
0.37636513 -0.5 -0.4313499 -0.030388745 -0.99907607 -0.030388745 0
