# .PCD v0.7 - Point Cloud Data file format
VERSION 0.7
FIELDS x y z normal_x normal_y normal_z curvature
SIZE 4 4 4 4 4 4 4
TYPE F F F F F F F
COUNT 1 1 1 1 1 1 1
WIDTH 1239
HEIGHT 1
VIEWPOINT 0 0 0 1 0 0 0
POINTS 1239
DATA ascii
-1 -0.76035357 -0.97812295 -1 -0 -0 0
0.99999934 0.746876 0.57032919 1 -0 0 0
0.54324532 1 0.36991641 0 1 0 0
0.89655328 -1 -0.81182051 0 -0.99999994 0 0
0.68562967 -0.93595266 1.0000001 0 -0 1 0
-0.77905089 -0.66501027 -1 0 0 -1 0
0.73221982 1 -0.25108597 0 1 0 0
-0.78368843 0.18797904 1.0000001 0 -0 1 0
0.079608113 0.81669343 1.0000005 0 -0 1 0
-0.15994924 1 0.86407965 0 1 0 0
-0.49119008 1 0.065156519 0 1 0 0
-0.72890425 0.42576802 1.0000001 0 -0 1 0
-0.23534596 0.69453967 -0.99999976 0 0 -1 0
-0.67871231 1 -0.80364567 0 1 0 0
-1 0.4409312 0.81082046 -1 -0 -0 0
1 0.12831771 -0.18426457 1 -0 0 0
-1 0.2119056 0.92369723 -1 -0 -0 0
0.12026203 0.60460818 1.0000005 0 -0 1 0
0.71820575 0.61534572 1.0000008 0 -0 1 0
-0.75856256 1 -0.44022819 0 1 0 0
0.48326182 -0.7474525 -1 0 0 -1 0
0.99999988 -0.61017251 0.81589723 1 -0 0 0
0.93795711 1 -0.78367716 0 1 0 0
-0.14744584 0.96483147 1.0000005 0 -0 1 0
0.290353 0.74630922 -0.99999946 0 0 -1 0
0.28636396 1 0.99840689 0 1 0 0
-0.80720878 -1 -0.48168683 0 -1 0 0
0.060628295 0.2687999 1.0000005 0 -0 1 0
-0.2666176 1 0.23179054 0 1 0 0
0.54426289 -0.90626049 -1 0 0 -1 0
0.9999997 -0.19842982 0.7679072 1 -0 0 0
-0.011514962 -0.079573333 -1 0 0 -1 0
-0.92236209 -0.60228097 1.0000001 0 -0 1 0
1 0.18146002 -0.7410264 1 -0 0 0
0.99999988 -0.19484961 0.47075856 1 -0 0 0
-0.99527574 -0.70784152 -1 0 0 -1 0
-1 -0.67899632 0.72780174 -0.99999994 -0 -0 0
-0.53044224 0.6740067 -0.99999994 0 0 -0.99999994 0
0.26308072 -1 0.48784071 0 -1 0 0
0.99999988 0.77116072 -0.57563239 1 -0 0 0
-0.71601969 -1 0.2296356 0 -1 0 0
-0.36110178 -0.39127922 1.0000004 0 -0 1 0
-1 -0.48960686 0.31130219 -1 -0 -0 0
-0.25375128 1 0.56131136 0 1 0 0
0.79728979 1 -0.98097259 0 1 0 0
-0.34957129 1 -0.16877395 0 1 0 0
-0.18039924 1 -0.34883234 0 1 0 0
0.68006372 -1 -0.2284472 0 -1 0 0
-1 -0.86153293 -0.35443056 -0.99999994 -0 -0 0
-1 -0.33013833 -0.034964442 -1 -0 -0 0
-1 0.66406989 0.51427758 -1 -0 -0 0
1 -0.76607859 -0.66422129 1 -0 0 0
-0.033876657 0.39885145 -0.99999982 0 0 -1 0
-0.51450801 -1 0.012584209 0 -1 0 0
0.45532596 -0.45928502 -1 0 0 -1 0
-0.15305915 1 -0.61072981 0 0.99999994 0 0
-0.71766567 -1 -0.16065454 0 -1 0 0
-0.49444938 -1 -0.80060124 0 -1 0 0
-0.28698814 -1 -0.28645366 0 -1 0 0
-0.32202014 -0.54835832 -1 0 0 -1 0
-1 -0.1124469 -0.99331796 -1 -0 -0 0
0.99999946 0.36033106 0.65785491 1 -0 0 0
0.24920309 -1 0.62047923 0 -1 0 0
0.99999982 0.82009757 -0.46701875 1 -0 0 0
1 -0.70686072 -0.17445806 1 -0 0 0
0.21794105 1 -0.67841339 0 1 0 0
0.87780356 0.87772739 -0.99999911 0 0 -0.99999994 0
-1 -0.205778 -0.28269446 -1 -0 -0 0
-0.52435279 1 -0.52567351 0 1 0 0
-1 -0.75551015 0.95376366 -1 -0 -0 0
0.68279481 -1 -0.28020561 0 -1 0 0
-1 -0.047887087 -0.11369485 -1 -0 -0 0
-1 0.64259613 -0.24732947 -1 -0 -0 0
-0.87113929 -1 -0.80057883 0 -0.99999994 0 0
0.99999952 0.34010738 0.60049307 1 -0 0 0
-1 -0.19734108 -0.091011375 -0.99999994 -0 -0 0
1 0.92956603 -0.93502581 1 -0 0 0
0.17081296 1 -0.48933956 0 1 0 0
0.83829737 1 0.96704531 0 1 0 0
0.94027364 1 0.14861719 0 1 0 0
0.99999994 -0.88421845 0.9447816 1 -0 0 0
-0.58566582 -1 -0.63079572 0 -1 0 0
0.79154122 0.77580726 -0.99999923 0 0 -1 0
-0.89544654 -0.59059775 1.0000001 0 -0 1 0
0.62656224 1 0.81455857 0 1 0 0
-0.35865965 0.58275896 1.0000002 0 -0 1 0
0.049880005 -0.61336994 1.0000001 0 -0 1 0
-0.96181345 1 0.26624861 0 1 0 0
0.84526294 1 0.31876841 0 1 0 0
-1 -0.38410527 -0.95889622 -1 -0 -0 0
-1 0.46543655 0.61449349 -1 -0 -0 0
0.58342767 1 0.66967791 0 1 0 0
-1 0.17358279 -0.5808028 -1 -0 -0 0
0.18682897 -0.51612532 -1 0 0 -1 0
-0.45002627 -0.42090595 1.0000002 0 -0 1 0
0.78881443 -1 0.17246425 0 -1 0 0
0.93725824 0.44853234 1.0000007 0 -0 1 0
0.028149962 -1 -0.63749576 0 -1 0 0
-1 -0.89102256 -0.69296575 -1 -0 -0 0
0.29506779 -1 -0.86288047 0 -1 0 0
-1 -0.0030319691 -0.03873428 -1 -0 -0 0
-0.61603355 -0.41928387 -1 0 0 -1 0
-0.97128403 -0.96541107 -1 0 0 -0.99999994 0
0.99999976 -0.24129581 0.67285699 1 -0 0 0
0.34666398 0.68975449 1.0000007 0 -0 1 0
-1 0.9350462 0.28032362 -0.99999994 -0 -0 0
-0.65169978 0.72655195 1.0000001 0 -0 1 0
0.21444923 -0.37358689 -1 0 0 -0.99999994 0
-0.58140421 -1 -0.40863985 0 -1 0 0
-1 0.62621629 0.51417077 -1 -0 -0 0
-1 0.57353532 -0.98133242 -0.99999994 -0 -0 0
-0.33266115 -1 -0.62521815 0 -1 0 0
0.22858429 0.95523596 -0.9999994 0 0 -0.99999994 0
1 0.35803211 -0.56576312 1 -0 0 0
0.99999988 -0.52218783 0.77800542 1 -0 0 0
-0.66551507 -0.9764775 1 0 -0 1 0
1 -0.6623801 0.16133182 1 -0 0 0
0.31575572 -0.22221887 -0.99999994 0 0 -1 0
0.036198497 -1 -0.44663465 0 -1 0 0
-1 0.74096006 0.35909587 -1 -0 -0 0
-1 0.31651831 0.77375519 -1 -0 -0 0
-0.18895082 0.78803611 1.0000004 0 -0 1 0
1 -0.29396498 -0.87629104 1 -0 0 0
-0.30396277 0.76512992 1.0000004 0 -0 1 0
-0.019273231 -0.94371998 1 0 -0 1 0
-1 -0.39365208 -0.49495816 -1 -0 -0 0
-0.29505718 -1 0.7191242 0 -0.99999994 0 0
-0.95483911 -1 -0.91540015 0 -1 0 0
0.13068616 0.4276526 -0.9999997 0 0 -1 0
-0.19001806 -0.56397939 -1 0 0 -1 0
-1 -0.89554656 0.99300635 -1 -0 -0 0
1 -0.53730422 0.37360439 1 -0 0 0
0.044725895 1 0.35085201 0 1 0 0
-0.80449992 1 0.85077453 0 1 0 0
-1 0.47442472 0.96402562 -0.99999994 -0 -0 0
0.99999982 0.21943736 0.15473956 0.99999994 -0 0 0
0.68842804 -1 0.17670617 0 -1 0 0
0.66737235 0.20525134 1.0000006 0 -0 1 0
-0.36122429 0.45784545 -0.99999994 0 0 -1 0
-0.84178162 -1 0.51724434 0 -1 0 0
-0.018697619 0.27396226 1.0000005 0 -0 1 0
0.99999964 0.20479071 0.48199493 1 -0 0 0
-0.19798791 0.78143281 -0.9999997 0 0 -1 0
0.4638809 -0.91131878 -1 0 0 -1 0
-0.095390469 0.85469896 1.0000004 0 -0 1 0
-0.30779785 -1 -0.18828487 0 -1 0 0
-0.71361154 -0.11379492 1.0000002 0 -0 1 0
-0.85309553 0.36714804 1 0 -0 1 0
-0.20332795 -0.098900795 1.0000005 0 -0 1 0
0.97536552 1 0.9801259 0 0.99999994 0 0
-0.49453318 -1 -0.36045372 0 -0.99999994 0 0
0.34693515 1 -0.55108529 0 1 0 0
0.9039079 -1 0.83799112 0 -0.99999994 0 0
0.43188953 -1 0.76585948 0 -1 0 0
-1 0.27463448 0.45616484 -1 -0 -0 0
-1 -0.3124879 0.81086296 -1 -0 -0 0
-1 -0.56789219 0.13145769 -1 -0 -0 0
0.0087058544 0.67233539 -0.99999964 0 0 -0.99999994 0
-1 0.80453074 -0.62355709 -1 -0 -0 0
0.46540534 0.46704435 -0.99999952 0 0 -1 0
-0.89208555 1 -0.98107398 0 1 0 0
-0.41453585 0.52950382 1.0000002 0 -0 1 0
-0.85564309 -0.53342402 1.0000001 0 -0 0.99999994 0
-0.32159448 1 -0.49496165 0 1 0 0
0.56285107 1 0.23105519 0 1 0 0
0.95698327 -0.016649127 1.0000005 0 -0 1 0
-0.23909593 -1 -0.21434796 0 -1 0 0
0.82155061 0.3780762 -0.9999994 0 0 -1 0
-0.78223145 0.6813401 -1 0 0 -0.99999994 0
-1 -0.039871134 0.98257464 -1 -0 -0 0
0.7866264 -0.61667758 -0.99999994 0 0 -1 0
-0.01248014 1 -0.48530483 0 1 0 0
-0.88263267 1 -0.65498227 0 1 0 0
0.99999982 0.45509475 -0.12793595 1 -0 0 0
0.79146492 1 0.12956963 0 1 0 0
1 -0.86494815 0.50487077 1 -0 0 0
-0.52884471 1 -0.61301315 0 1 0 0
0.68297809 0.50822425 1.0000007 0 -0 1 0
0.8617208 -0.80271113 -0.99999994 0 0 -1 0
-1 0.88548601 0.90341723 -1 -0 -0 0
-0.060743749 1 0.31808382 0 1 0 0
-0.086693883 -1 -0.15581346 0 -1 0 0
0.47633779 1 -0.97420943 0 1 0 0
0.97900915 0.19514716 1.0000006 0 -0 1 0
-0.6975466 0.55457747 1.0000001 0 -0 1 0
-1 0.6034044 0.79840446 -1 -0 -0 0
0.33158171 1 -0.2700296 0 1 0 0
-1 -0.55475676 -0.64779222 -1 -0 -0 0
-1 -0.34129715 -0.47746676 -1 -0 -0 0
0.8434878 -0.3425985 -0.99999976 0 0 -1 0
1 -0.095732212 -0.95971537 0.99999994 -0 0 0
-0.2393657 -1 0.50682807 0 -1 0 0
-0.27613306 -1 -0.89116633 0 -1 0 0
0.77525008 1 0.78190231 0 0.99999994 0 0
0.99999952 0.2288146 0.74344587 1 -0 0 0
0.46933138 1 0.85544991 0 1 0 0
-0.60600305 0.69870943 -0.99999994 0 0 -1 0
-0.047518253 -1 -0.25707716 0 -1 0 0
0.99999928 0.53778923 0.91282523 0.99999994 -0 0 0
1 -0.89633918 0.44371122 1 -0 0 0
-0.90833837 1 0.84557921 0 1 0 0
0.99999976 0.7021172 -0.1976659 1 -0 0 0
0.99999964 -0.15856111 0.80847871 0.99999994 -0 0 0
-0.56651735 0.04191196 -1 0 0 -1 0
0.63624644 -0.96965146 1.0000001 0 -0 1 0
0.98232108 1 -0.17301293 0 1 0 0
-1 0.35762179 0.67601442 -1 -0 -0 0
-1 -0.31657517 -0.0041170418 -1 -0 -0 0
-0.71195912 -0.087404966 -1 0 0 -1 0
-0.75075424 -1 0.27604413 0 -0.99999994 0 0
-0.68978655 0.21547842 1.0000001 0 -0 1 0
0.9545784 -0.44129664 1.0000002 0 -0 1 0
1 0.4795475 -0.90905923 1 -0 0 0
-1 -0.66281331 -0.43425524 -1 -0 -0 0
-0.6192174 0.54365879 1.0000001 0 -0 1 0
-1 0.86770284 0.38252723 -1 -0 -0 0
-0.31451559 -0.29479629 -1 0 0 -0.99999994 0
1 -0.76043844 0.29270369 1 -0 0 0
-1 -0.64756405 -0.74287438 -0.99999994 -0 -0 0
0.78778911 -1 -0.13293029 0 -1 0 0
0.68852228 -0.3117407 1.0000004 0 -0 1 0
0.99999928 0.60958469 0.77034056 1 -0 0 0
-1 0.64448416 0.66153944 -1 -0 -0 0
0.94959229 -0.24639589 1.0000004 0 -0 1 0
0.0514431 0.34458649 -0.99999982 0 0 -1 0
-0.27711195 -0.29114586 -1 0 0 -1 0
-1 0.64699531 -0.22150469 -0.99999994 -0 -0 0
-0.17923748 1 -0.22900841 0 1 0 0
1 -0.73352182 0.77467948 1 -0 0 0
-0.42834836 1 -0.11582488 0 1 0 0
-1 0.8316648 -0.65140355 -1 -0 -0 0
-0.34735632 -1 0.38622987 0 -0.99999994 0 0
0.73456419 0.44473994 -0.9999994 0 0 -1 0
0.99999988 0.11272526 0.12925112 1 -0 0 0
0.7775768 0.84267902 1.0000008 0 -0 1 0
-0.63370335 -1 -0.17267764 0 -1 0 0
-0.07893002 -1 0.77846467 0 -1 0 0
-0.58175063 0.020080924 1.0000002 0 -0 0.99999994 0
1 -0.50863218 0.47093728 1 -0 0 0
-0.93037885 0.71538103 1 0 -0 0.99999994 0
-0.4747192 0.7005235 1.0000002 0 -0 1 0
-1 -0.46382856 -0.96950567 -1 -0 -0 0
0.28621304 -0.95998228 -1 0 0 -1 0
0.99999958 0.39855695 0.40673929 1 -0 0 0
1 -0.45291576 0.40382305 1 -0 0 0
0.59376949 -1 0.084900498 0 -1 0 0
-0.87054867 0.44774461 1.0000001 0 -0 1 0
0.63777196 1 0.11325863 0 1 0 0
-0.787049 0.091686726 1 0 -0 1 0
-0.65403199 -0.40008831 -1 0 0 -1 0
-0.98741823 1 0.41116652 0 1 0 0
0.99999994 0.1673373 -0.098863304 1 -0 0 0
0.60662133 -0.90822434 1 0 -0 1 0
-0.72291136 -0.19282657 -1 0 0 -1 0
-0.97812945 -1 -0.90088183 0 -1 0 0
0.16209197 -0.55442607 1.0000002 0 -0 1 0
0.21944119 -0.62883121 1.0000002 0 -0 1 0
0.91764593 -0.7936883 -0.99999994 0 0 -1 0
-0.1133698 -0.51414645 1.0000002 0 -0 1 0
0.041500211 -1 -0.081213832 0 -1 0 0
0.34537271 0.033574402 1.0000005 0 -0 1 0
1 -0.24958262 -0.20173387 1 -0 0 0
-0.14087868 1 0.98727465 0 1 0 0
-0.30929661 1 -0.02413547 0 1 0 0
0.99999976 -0.34162283 0.78973073 0.99999994 -0 0 0
0.99999976 0.97801828 -0.46132654 1 -0 0 0
0.96140718 0.34358919 1.0000007 0 -0 1 0
-1 -0.15977252 0.23538172 -1 -0 -0 0
0.44933939 -1 0.096656322 0 -1 0 0
0.44811881 -1 -0.13059926 0 -1 0 0
0.35835001 0.15835309 1.0000005 0 -0 1 0
0.99328452 0.13664907 1.0000006 0 -0 1 0
0.99999923 0.83484268 0.63883972 1 -0 0 0
0.86714518 1 0.58519042 0 1 0 0
0.70588851 -1 -0.56890428 0 -1 0 0
-0.83920765 -1 0.89524615 0 -1 0 0
-0.27667385 0.27290273 1.0000004 0 -0 0.99999994 0
-1 0.084742188 0.14533186 -1 -0 -0 0
1 -0.47685426 -0.37401938 1 -0 0 0
0.22419986 -0.6452781 1.0000002 0 -0 1 0
-0.86770248 1 -0.54473376 0 1 0 0
0.32312268 0.89170241 1.0000007 0 -0 1 0
-0.95217717 -0.3391099 -1 0 0 -1 0
0.73337263 0.78086674 1.0000008 0 -0 0.99999994 0
0.89879704 -1 0.44993281 0 -1 0 0
-0.11220372 -1 0.36692572 0 -1 0 0
-1 -0.57612503 0.50971121 -1 -0 -0 0
0.61434793 1 -0.029412897 0 1 0 0
0.040330291 1 -0.021712987 0 0.99999994 0 0
-0.035155177 1 0.34736288 0 1 0 0
-0.52381867 -1 -0.011094511 0 -1 0 0
0.45559514 1 -0.36854666 0 1 0 0
0.99999994 -0.036794901 0.106471 1 -0 0 0
0.50371242 -0.59766662 1.0000002 0 -0 1 0
0.87263358 -0.22465014 -0.99999964 0 0 -0.99999994 0
0.99999946 0.41424429 0.6041764 0.99999994 -0 0 0
-0.98191333 1 0.92253238 0 1 0 0
0.28576243 -0.73642373 -1 0 0 -1 0
-0.84494734 -1 -0.13946664 0 -1 0 0
0.052273631 -1 0.081774592 0 -0.99999994 0 0
-0.59575653 -0.2881887 1.0000002 0 -0 1 0
0.74949688 0.556252 1.0000007 0 -0 1 0
-0.877424 -1 0.42740822 0 -1 0 0
0.99999982 -0.31537437 0.71124053 1 -0 0 0
0.9999997 -0.12632787 0.65795952 1 -0 0 0
0.39280266 1 -0.84963083 0 1 0 0
1 -0.28948307 -0.75551546 1 -0 0 0
-1 0.20917284 -0.77737415 -1 -0 -0 0
-0.36742204 1 -0.92666352 0 1 0 0
-1 0.018148661 -0.041788481 -1 -0 -0 0
-0.48161328 1 -0.1451745 0 1 0 0
0.99999982 0.20407093 0.15832609 0.99999994 -0 0 0
-1 -0.60423803 -0.9672178 -1 -0 -0 0
1 -0.95203197 0.97213984 1 -0 0 0
-1 0.95610809 0.99391305 -1 -0 -0 0
-1 0.93035918 -0.075770259 -1 -0 -0 0
1 -0.93410945 -0.31830469 1 -0 0 0
-1 0.28437352 -0.74985147 -1 -0 -0 0
-0.047845244 1 0.29004776 0 1 0 0
0.33479142 -1 0.59902573 0 -1 0 0
-0.41575587 -1 -0.80477059 0 -1 0 0
0.99999988 -0.42476261 0.65177691 1 -0 0 0
-0.32736737 -0.19734275 -1 0 0 -1 0
0.63460517 1 0.30078822 0 1 0 0
-0.51084095 -0.24575794 1.0000002 0 -0 1 0
-0.57816452 -0.78522158 1.0000001 0 -0 0.99999994 0
-0.52668774 0.060985327 -1 0 0 -1 0
-0.12746066 -1 -0.61583012 0 -1 0 0
1 -0.022660375 -0.18318473 1 -0 0 0
1 -0.3921119 0.22985467 1 -0 0 0
0.84648371 -1 -0.68190026 0 -1 0 0
0.44527268 -0.6429497 -1 0 0 -1 0
0.43622875 -1 0.17140877 0 -1 0 0
-1 0.53817344 -0.61807871 -1 -0 -0 0
0.87697625 -1 -0.45000398 0 -1 0 0
1 -0.25488245 -0.017535646 1 -0 0 0
0.99999976 0.71405983 -0.23995373 1 -0 0 0
0.12079823 1 -0.69043726 0 0.99999994 0 0
-0.79862875 -0.014728069 1.0000001 0 -0 1 0
0.9999997 -0.18130028 0.79897082 0.99999994 -0 0 0
-0.66894871 -1 -0.93862039 0 -1 0 0
1 -0.78900003 -0.42873684 1 -0 0 0
0.99999928 0.96188712 0.50786096 0.99999994 -0 0 0
0.75063032 -0.40036988 1.0000002 0 -0 1 0
0.66957712 0.74822569 -0.99999928 0 0 -1 0
0.0065504313 -1 0.62883919 0 -1 0 0
0.53488457 0.6602422 -0.9999994 0 0 -1 0
-0.83887887 -0.43039238 1 0 -0 1 0
0.3817963 0.24279439 1.0000006 0 -0 1 0
-1 0.39401811 0.45066261 -1 -0 -0 0
-1 -0.95871449 -0.92721534 -1 -0 -0 0
-0.46906674 1 0.41916668 0 1 0 0
-0.66431487 -0.80255997 1 0 -0 1 0
1 -0.89288533 0.95154506 0.99999994 -0 0 0
0.46460581 1 -0.62520963 0 1 0 0
-0.22310595 -0.96320963 1 0 -0 1 0
0.22027308 0.65013534 -0.99999958 0 0 -1 0
0.83462691 0.5903455 -0.99999928 0 0 -1 0
1 0.24147233 -0.34431404 1 -0 0 0
1 0.39551705 -0.58242404 1 -0 0 0
0.99999952 0.52750361 0.38071829 1 -0 0 0
-1 -0.4680773 0.4432562 -1 -0 -0 0
-0.95946395 1 -0.76109177 0 1 0 0
-0.99211133 1 -0.4265132 0 1 0 0
0.99999982 0.97659647 -0.67065006 1 -0 0 0
0.44372413 -0.88330418 1.0000001 0 -0 0.99999994 0
0.99999976 -0.25584757 0.69752443 1 -0 0 0
0.80375791 -1 -0.73127639 0 -0.99999994 0 0
-1 0.93671942 -0.49764657 -1 -0 -0 0
0.12393385 -0.08037632 -1 0 0 -1 0
-0.69223231 -1 -0.52262658 0 -1 0 0
0.40128747 -1 -0.56172073 0 -1 0 0
1 -0.9414469 -0.13351126 0.99999994 -0 0 0
0.30332696 1 0.49582553 0 1 0 0
0.61982977 0.90203977 -0.99999923 0 0 -1 0
0.25809681 -0.30204856 -1 0 0 -1 0
-0.72771645 -0.53139734 1.0000001 0 -0 1 0
-1 0.85393941 0.29788435 -1 -0 -0 0
-0.93194056 0.82555199 1 0 -0 0.99999994 0
-0.067426324 -1 -0.61642861 0 -1 0 0
1 0.12848067 -0.98316979 1 -0 0 0
-0.50612319 1 0.78860533 0 1 0 0
0.99999976 0.23468435 0.26860458 1 -0 0 0
0.99999976 0.72150755 -0.28702825 1 -0 0 0
0.99999911 0.99446988 0.76836842 1 -0 0 0
0.81537253 -1 -0.5983091 0 -1 0 0
0.053688824 -1 -0.049110591 0 -1 0 0
-0.20048666 -0.77761489 1.0000001 0 -0 0.99999994 0
-1 0.33064103 0.33007598 -1 -0 -0 0
-0.18844305 -0.34543657 1.0000002 0 -0 1 0
0.99999976 0.61172605 -0.17129034 1 -0 0 0
-1 0.014127016 0.61860824 -1 -0 -0 0
-0.74193931 0.68472004 -1 0 0 -1 0
-0.42002416 -1 0.42046565 0 -1 0 0
1 -0.31094062 -0.70613301 1 -0 0 0
0.11488542 -0.9402594 -1 0 0 -1 0
-0.022770882 -1 -0.33644557 0 -1 0 0
0.72596979 -0.89937246 1 0 -0 1 0
-0.84070277 -1 0.93374979 0 -1 0 0
-0.28983265 1 0.20655113 0 1 0 0
-1 0.57579869 -0.47313476 -1 -0 -0 0
-0.76807845 0.86252511 -0.99999994 0 0 -0.99999994 0
0.92637038 -0.56340569 1.0000002 0 -0 1 0
-1 -0.22121894 -0.75175172 -1 -0 -0 0
-1 -0.56576687 0.40961093 -1 -0 -0 0
-0.6948908 -0.72144783 1.0000001 0 -0 0.99999994 0
-0.011419177 0.71305847 1.0000005 0 -0 1 0
-0.72464621 -0.85187876 1 0 -0 0.99999994 0
-0.76225853 0.96809405 1.0000001 0 -0 1 0
0.99974895 1 0.13446076 0 1 0 0
-0.63099122 0.69922554 -0.99999994 0 0 -0.99999994 0
-0.94158065 1 -0.61873555 0 1 0 0
0.37264168 -1 -0.40048623 0 -1 0 0
0.33144343 -1 -0.82766128 0 -1 0 0
0.16425276 -1 -0.91510975 0 -1 0 0
-0.69990659 0.71559215 1.0000001 0 -0 1 0
0.64667064 -1 -0.66989803 0 -1 0 0
1 0.20091355 -0.48769578 1 -0 0 0
-0.2932663 -1 0.090986013 0 -1 0 0
0.93502873 1 -0.62327754 0 1 0 0
-0.43132395 0.59470159 1.0000002 0 -0 0.99999994 0
-0.55737102 -0.74067497 -1 0 0 -1 0
-0.65498728 -0.39251351 1.0000001 0 -0 1 0
-0.055333972 -1 -0.54432082 0 -1 0 0
-0.067978024 0.46837831 1.0000005 0 -0 1 0
0.80249083 0.73445249 -0.99999923 0 0 -0.99999994 0
0.99999982 -0.32713473 0.64660484 1 -0 0 0
0.69483376 -1 0.40389326 0 -1 0 0
0.16412848 0.32892928 -0.99999976 0 0 -1 0
-1 -0.60345125 -0.19115627 -0.99999994 -0 -0 0
-0.29647493 -1 0.72577798 0 -1 0 0
-0.50746894 0.11613703 -1 0 0 -1 0
0.60721982 0.84897256 -0.99999928 0 0 -1 0
0.59681308 1 0.47843939 0 1 0 0
0.018743455 0.15706992 1.0000005 0 -0 1 0
0.75960445 -0.43120766 -0.99999982 0 0 -0.99999994 0
0.79323363 -0.32296121 1.0000004 0 -0 1 0
0.46227062 -1 -0.79899228 0 -1 0 0
-1 0.20429802 -0.84191793 -1 -0 -0 0
1 -0.016524911 -0.089777164 1 -0 0 0
0.99999994 0.99981964 -0.82881844 1 -0 0 0
0.89644361 -1 -0.42948914 0 -1 0 0
-0.63010335 -0.14119136 1.0000001 0 -0 1 0
0.06246534 -1 -0.12607461 0 -1 0 0
0.80557096 -1 -0.092166185 0 -1 0 0
0.2346096 1 -0.50182986 0 1 0 0
-0.21274211 -0.76680791 1.0000001 0 -0 1 0
-1 0.55812728 -0.021980286 -1 -0 -0 0
-0.44711882 -0.38908386 1.0000002 0 -0 0.99999994 0
-1 0.4333998 0.26647127 -1 -0 -0 0
-0.26938325 0.50770366 1.0000004 0 -0 1 0
0.14800811 -0.94482219 -1 0 0 -1 0
0.37475467 -0.11515123 1.0000004 0 -0 1 0
-0.41895652 0.14888167 -1 0 0 -1 0
-1 0.81591809 -0.95046961 -1 -0 -0 0
-0.31195775 -0.38010395 1.0000004 0 -0 1 0
0.073242307 0.06648314 1.0000005 0 -0 1 0
1 -0.94163072 -0.35388249 1 -0 0 0
-1 0.35596311 -0.21999478 -0.99999994 -0 -0 0
1 -0.19696486 -0.093336254 1 -0 0 0
0.92045546 -1 0.10364641 0 -0.99999994 0 0
0.68095124 -0.42813432 -0.99999988 0 0 -1 0
0.40315235 0.81512809 -0.9999994 0 0 -0.99999994 0
-0.63621956 -0.51189542 1.0000002 0 -0 0.99999994 0
1 0.032947302 -0.85215515 1 -0 0 0
-0.11233944 0.072401226 1.0000004 0 -0 1 0
-0.134498 -1 -0.99172211 0 -1 0 0
1 -0.077171743 -0.94067794 1 -0 0 0
0.23050916 -1 0.33572924 0 -1 0 0
-0.86459595 1 0.0060018897 0 1 0 0
-0.049359202 1 -0.95912904 0 1 0 0
0.99460852 0.39205074 1.0000007 0 -0 1 0
-1 -0.56160474 0.45198286 -1 -0 -0 0
0.23642245 0.57499784 1.0000006 0 -0 1 0
-0.34651899 -1 0.81521332 0 -1 0 0
0.48263609 -1 0.41047496 0 -1 0 0
0.99999964 0.45464075 0.22653729 1 -0 0 0
-0.058288932 -1 -0.36226451 0 -1 0 0
-1 -0.38838768 0.50063252 -1 -0 -0 0
0.31665617 -1 0.88895363 0 -1 0 0
0.45281339 0.11208045 -0.9999997 0 0 -0.99999994 0
-1 -0.5143801 0.72145331 -0.99999994 -0 -0 0
1 -0.57782042 0.027580995 1 -0 0 0
0.073722839 -1 -0.53540421 0 -1 0 0
0.61247593 -0.50012958 1.0000002 0 -0 1 0
-0.11394882 -0.05176878 1.0000005 0 -0 1 0
0.70395386 0.94412839 -0.99999917 0 0 -1 0
-1 -0.31169492 -0.032102019 -1 -0 -0 0
0.13487709 1 0.049687192 0 1 0 0
0.73323035 1 -0.92969137 0 1 0 0
-1 0.45976222 -0.68292451 -1 -0 -0 0
-0.27706558 1 0.18219155 0 1 0 0
1 -0.75483525 -0.15529762 1 -0 0 0
0.36406702 0.24921954 1.0000006 0 -0 1 0
-1 0.35613072 0.77412605 -1 -0 -0 0
0.29062772 1 -0.22862324 0 1 0 0
0.036092639 0.35433698 -0.99999982 0 0 -1 0
-0.22489423 -1 -0.043834805 0 -1 0 0
0.89050895 0.68890631 1.0000008 0 -0 1 0
1 -0.97559768 -0.11685051 1 -0 0 0
-1 -0.042966127 -0.82571387 -1 -0 -0 0
-0.99584639 -0.76700437 -1 0 0 -1 0
0.28117239 -1 -0.30397916 0 -1 0 0
-1 -0.82521319 -0.81637228 -1 -0 -0 0
0.207452 -1 -0.87025273 0 -1 0 0
-1 0.17510176 0.84674346 -1 -0 -0 0
-1 0.6391834 0.36341298 -1 -0 -0 0
0.20419961 -1 0.49615121 0 -1 0 0
0.25649619 -1 0.18860066 0 -0.99999994 0 0
-0.45884931 0.30978584 -1 0 0 -1 0
1 0.052160382 -0.13285594 1 -0 0 0
-1 0.65711367 0.45245659 -1 -0 -0 0
0.99999952 0.4488858 0.44268107 1 -0 0 0
0.53689718 -0.82965624 1.0000001 0 -0 1 0
1 -0.81432664 0.23654306 1 -0 0 0
-0.24259132 1 0.82284385 0 1 0 0
-1 -0.071807906 0.83233434 -1 -0 -0 0
-0.59466028 -0.43066072 -1 0 0 -1 0
-0.10953522 -1 0.93723255 0 -1 0 0
-0.9936406 0.81241775 -1 0 0 -1 0
-0.49065852 1 0.87178075 0 1 0 0
0.99999988 -0.31868029 0.511298 1 -0 0 0
0.60004091 -1 0.60448098 0 -1 0 0
-0.15091157 -0.062983632 -1 0 0 -1 0
0.115161 0.5703547 1.0000005 0 -0 1 0
0.073537588 -1 0.94942462 0 -1 0 0
0.78816658 -1 -0.23195715 0 -1 0 0
0.99064362 1 0.27189469 0 1 0 0
-0.68255544 0.67769575 -1 0 0 -1 0
0.86438763 0.37313044 -0.99999934 0 0 -1 0
0.80162257 -0.67216325 -0.99999994 0 0 -1 0
-1 0.79698282 -0.17491019 -1 -0 -0 0
-1 -0.50832975 -0.99414432 -1 -0 -0 0
-0.97024894 -0.30771208 -1 0 0 -0.99999994 0
-1 -0.94950414 0.26539409 -1 -0 -0 0
-0.61597043 -0.74264544 -1 0 0 -1 0
0.99999994 0.86627042 -0.77213407 1 -0 0 0
1 -0.5068233 -0.64829183 1 -0 0 0
-0.45989543 -1 -0.90317351 0 -0.99999994 0 0
0.98768294 -1 -0.33105099 0 -1 0 0
-0.93895459 0.94863677 -1 0 0 -0.99999994 0
-0.98847711 1 -0.78689373 0 1 0 0
1 -0.5346458 0.017107284 1 -0 0 0
-0.59715211 1 -0.87717718 0 0.99999994 0 0
1 -0.12389064 -0.54003263 1 -0 0 0
0.9999997 0.15488636 0.4428916 1 -0 0 0
-0.35890335 1 -0.71509719 0 1 0 0
0.46990502 -0.83455396 1.0000001 0 -0 1 0
-0.41130495 -1 -0.47468996 0 -1 0 0
0.3231492 -1 0.19262856 0 -1 0 0
-1 -0.53172076 0.90311944 -1 -0 -0 0
-1 0.75140238 -0.42621493 -1 -0 -0 0
-0.271382 0.92836094 1.0000004 0 -0 0.99999994 0
0.16390848 -0.87837994 -1 0 0 -1 0
-0.77739006 -1 -0.37233597 0 -1 0 0
0.99999988 -0.61059141 0.80096543 1 -0 0 0
-0.65512305 1 0.95137125 0 1 0 0
0.28387284 0.75559628 1.0000006 0 -0 1 0
-1 0.91824806 0.41218495 -1 -0 -0 0
-0.6498037 -0.900069 1 0 -0 1 0
-1 0.25963956 -0.24492872 -1 -0 -0 0
-0.47151893 -0.235829 1.0000002 0 -0 1 0
0.663647 -0.41514164 1.0000004 0 -0 1 0
-0.77336287 1 0.41841626 0 0.99999994 0 0
0.81358647 0.2386651 -0.99999946 0 0 -1 0
-1 -0.15959018 -0.60771275 -0.99999994 -0 -0 0
-0.95789742 -1 -0.46371031 0 -1 0 0
-0.18873262 -1 0.88339484 0 -1 0 0
0.33807278 0.67271018 -0.99999946 0 0 -1 0
0.30122197 1 -0.51051217 0 1 0 0
-0.32198161 1 -0.31015986 0 0.99999994 0 0
0.13975242 -0.033275336 1.0000005 0 -0 1 0
-0.94971889 -1 0.40444732 0 -0.99999994 0 0
1 0.50208235 -0.64442462 1 -0 0 0
-0.80915564 0.60611159 1 0 -0 1 0
0.11006522 -1 -0.90201747 0 -1 0 0
-0.64665455 -0.64631844 1.0000001 0 -0 0.99999994 0
-1 0.83113718 -0.7796241 -1 -0 -0 0
-0.91133672 -0.75572127 -1 0 0 -1 0
-0.35378915 0.6796093 1.0000004 0 -0 1 0
-1 -0.90279567 -0.81018221 -1 -0 -0 0
-0.065239072 -0.14508128 -1 0 0 -1 0
0.99999994 -0.54559422 0.7045489 1 -0 0 0
-0.20021331 1 0.22108805 0 1 0 0
-0.040928006 -1 -0.54824841 0 -0.99999994 0 0
-1 0.58598018 -0.47248745 -1 -0 -0 0
-0.69449592 0.14251506 -1 0 0 -1 0
0.36585832 1 -0.8126263 0 1 0 0
-1 -0.92597306 0.75549841 -1 -0 -0 0
-1 -0.93971872 -0.20696354 -1 -0 -0 0
-1 0.16029274 0.90081871 -1 -0 -0 0
-0.084881544 -1 0.85760033 0 -0.99999994 0 0
0.75140053 0.93989789 1.0000008 0 -0 1 0
0.24909168 -1 -0.87549078 0 -0.99999994 0 0
-0.99091381 0.00079059601 -1 0 0 -1 0
0.32556024 1 -0.007059942 0 1 0 0
1 0.82285964 -0.98701853 1 -0 0 0
0.6773355 -1 -0.48192155 0 -1 0 0
0.50857246 0.91387451 -0.99999928 0 0 -1 0
0.87718618 -1 -0.25458115 0 -1 0 0
0.30493981 -1 -0.41559404 0 -1 0 0
-1 0.29079449 0.51151931 -1 -0 -0 0
-0.93130666 -1 -0.010118306 0 -1 0 0
-0.13563406 -0.73512948 1.0000001 0 -0 1 0
-1 0.85684514 -0.15671086 -1 -0 -0 0
0.70339954 0.26114571 -0.99999952 0 0 -0.99999994 0
-0.35360396 0.37494791 -1 0 0 -1 0
-0.71406502 1 0.53459871 0 1 0 0
-1 0.44766974 -0.15224802 -1 -0 -0 0
0.97795534 1 0.59257454 0 1 0 0
0.95033073 -0.15934092 -0.99999958 0 0 -1 0
-0.81000614 -1 0.029974461 0 -1 0 0
-0.66601694 -1 0.43501115 0 -1 0 0
0.99999946 0.7635861 0.34596658 1 -0 0 0
0.99999958 0.7284587 0.04599756 1 -0 0 0
-1 -0.11448991 0.15488052 -1 -0 -0 0
-0.28362387 -1 -0.51277465 0 -1 0 0
-0.046221614 -1 0.10233194 0 -1 0 0
-0.94351757 0.86915159 -1 0 0 -1 0
-0.7364409 1 0.25518563 0 1 0 0
-0.36293203 0.071942449 1.0000002 0 -0 1 0
-0.084617257 -0.66901696 -1 0 0 -1 0
0.38508475 1 0.99491453 0 1 0 0
-0.32350886 0.53648448 -0.99999988 0 0 -1 0
0.64821124 0.143893 1.0000006 0 -0 1 0
-0.38614178 -0.023388624 -1 0 0 -1 0
0.7414211 -1 -0.84458244 0 -1 0 0
0.1049245 1 -0.32703987 0 1 0 0
-0.20794567 -1 -0.025630176 0 -1 0 0
-1 0.96856391 0.40673172 -1 -0 -0 0
-0.22853994 0.29943025 -0.99999994 0 0 -1 0
-0.21785834 -0.76035273 1.0000001 0 -0 0.99999994 0
-1 0.23210338 0.55747497 -1 -0 -0 0
-0.050293446 0.24605703 1.0000005 0 -0 1 0
1 -0.5121212 -0.82094735 0.99999994 -0 0 0
-0.61645222 -1 0.88762593 0 -1 0 0
0.97533417 1 0.47048977 0 1 0 0
-0.36724329 -1 0.91281164 0 -1 0 0
-1 -0.4837535 -0.070650995 -1 -0 -0 0
-0.78349078 -0.6069057 -1 0 0 -1 0
-0.13821089 1 0.71600914 0 1 0 0
0.52042961 -1 -0.80458832 0 -1 0 0
-0.94929123 -1 0.93038726 0 -1 0 0
-0.48412746 1 -0.90180153 0 0.99999994 0 0
-0.52242494 -1 -0.27727735 0 -1 0 0
-0.27376354 -0.41274095 1.0000002 0 -0 1 0
0.087502301 1 -0.97887337 0 1 0 0
0.010710089 -0.98479259 1 0 -0 1 0
0.26887074 0.19041568 1.0000006 0 -0 1 0
-0.45095381 -0.62750965 1.0000001 0 -0 1 0
0.99999952 0.25995052 0.62639159 1 -0 0 0
-0.82919073 -0.064421177 -1 0 0 -1 0
-1 0.34646657 0.62684059 -1 -0 -0 0
-1 0.51619053 0.80362833 -1 -0 -0 0
1 -0.78914416 -0.95360601 0.99999994 -0 0 0
-0.82657409 0.29085988 1.0000001 0 -0 1 0
0.96362299 -0.41991496 1.0000002 0 -0 1 0
0.96945035 -1 -0.83807468 0 -1 0 0
0.92876226 -0.35941231 1.0000004 0 -0 1 0
-0.23984277 0.26142132 1.0000004 0 -0 1 0
0.26532781 1 0.41807878 0 1 0 0
1 -0.97203767 -0.96739811 1 -0 0 0
-0.85501409 -1 -0.91790485 0 -1 0 0
0.9999997 0.69453478 -0.051450342 0.99999994 -0 0 0
0.20849144 -1 -0.43498385 0 -1 0 0
0.99999958 -0.088525534 0.86279207 0.99999994 -0 0 0
0.68837333 -1 -0.43572199 0 -1 0 0
1 -0.52688539 0.089691356 1 -0 0 0
0.19734186 -0.70667088 -1 0 0 -1 0
-0.58982831 -0.20072317 -1 0 0 -0.99999994 0
0.99999994 0.076129019 -0.0069355965 0.99999994 -0 0 0
0.99999923 0.75076711 0.80098301 0.99999994 -0 0 0
0.54019094 -1 -0.50958109 0 -1 0 0
-0.69810301 -0.15587711 -1 0 0 -1 0
-0.67061853 1 -0.48305771 0 1 0 0
-0.001326561 -1 -0.37131119 0 -1 0 0
-0.015805602 -1 0.92394006 0 -0.99999994 0 0
0.99999982 0.26072448 0.067397773 1 -0 0 0
0.73322642 -1 -0.53733981 0 -1 0 0
0.20070356 0.35793883 1.0000005 0 -0 0.99999994 0
0.76739299 -1 -0.18167087 0 -1 0 0
0.9999994 0.69478691 0.46177405 1 -0 0 0
-1 0.84845686 -0.12274003 -1 -0 -0 0
0.016380828 -1 -0.077999532 0 -1 0 0
-0.98160005 0.15630937 0.99999994 0 -0 1 0
0.29765761 -1 -0.93332326 0 -1 0 0
1 -0.86770958 -0.72204494 0.99999994 -0 0 0
-0.45948839 -1 0.69531035 0 -1 0 0
1 -0.46821243 -0.94291568 1 -0 0 0
0.63192248 -0.35402238 -0.99999988 0 0 -1 0
0.63211393 1 0.85771394 0 1 0 0
0.96530175 -1 -0.463009 0 -1 0 0
-0.11612386 1 0.6865713 0 1 0 0
-0.60037774 1 -0.055580556 0 1 0 0
-0.93215632 0.62090969 1 0 -0 0.99999994 0
0.9999994 0.50986385 0.64099598 1 -0 0 0
-1 0.185974 0.39322555 -1 -0 -0 0
-0.89462662 -1 -0.93670309 0 -1 0 0
0.64723575 -1 -0.048416615 0 -1 0 0
0.6581195 -1 0.47619015 0 -1 0 0
-0.20023577 -0.87836963 -1 0 0 -1 0
-0.60870457 1 -0.98046201 0 1 0 0
-0.51399457 0.45012534 -1 0 0 -1 0
-1 0.85634083 0.66697282 -1 -0 -0 0
-0.30427927 1 0.46639413 0 1 0 0
0.33550763 -0.21213651 -0.99999994 0 0 -1 0
0.16772605 0.14950939 1.0000006 0 -0 1 0
0.63103187 1 -0.56867892 0 0.99999994 0 0
-0.85129595 0.36978054 1 0 -0 1 0
-0.89470196 -1 0.05294466 0 -1 0 0
0.88199574 -0.41107333 1.0000004 0 -0 1 0
0.99999994 -0.88306236 0.99289066 0.99999994 -0 0 0
0.49953297 -0.84855044 1.0000001 0 -0 1 0
-1 -0.75083852 -0.90587592 -1 -0 -0 0
-0.83009273 -0.14150214 1 0 -0 1 0
-1 -0.38628542 -0.31509519 -1 -0 -0 0
-0.14774263 0.14053488 -1 0 0 -1 0
0.46435094 0.1891275 -0.99999964 0 0 -1 0
-0.43747783 -1 0.4823066 0 -1 0 0
0.54745501 1 -0.78929317 0 1 0 0
-1 -0.5092175 -0.071328759 -1 -0 -0 0
-1 0.54734695 -0.80780673 -0.99999994 -0 -0 0
1 -0.4366172 -0.54774857 0.99999994 -0 0 0
0.12650353 1 -0.16949454 0 1 0 0
0.41199046 0.26441538 -0.99999964 0 0 -1 0
1 -0.32162774 -0.48123944 1 -0 0 0
0.70595849 1 0.62801772 0 0.99999994 0 0
0.23702991 -0.95006907 -1 0 0 -1 0
-1 -0.24850363 -0.15092939 -0.99999994 -0 -0 0
-0.73178685 1 -0.64942396 0 1 0 0
0.32932317 -0.75999135 -1 0 0 -1 0
-1 0.94058824 -0.16607964 -1 -0 -0 0
0.91561437 1 0.86327517 0 1 0 0
0.013752639 1 -0.084303863 0 1 0 0
0.14845347 -0.42515814 -1 0 0 -0.99999994 0
0.99999988 -0.80797839 0.98610723 1 -0 0 0
-1 -0.54958868 0.48584569 -1 -0 -0 0
-1 -0.67783839 0.10773087 -1 -0 -0 0
-1 0.47476864 0.58350563 -1 -0 -0 0
-0.78118801 -1 0.57935393 0 -1 0 0
-1 0.49615216 -0.41657722 -1 -0 -0 0
1 -0.67674005 -0.6692242 1 -0 0 0
-0.56511605 0.87762368 1.0000002 0 -0 1 0
-1 -0.63983935 -0.58003169 -1 -0 -0 0
1 -0.82459676 0.73594868 1 -0 0 0
-0.37904721 -1 -0.49301648 0 -1 0 0
-1 -0.89476156 0.15254259 -1 -0 -0 0
-0.15973343 0.86710906 1.0000004 0 -0 1 0
1 0.67222893 -0.6342482 1 -0 0 0
0.90838867 0.80274111 -0.99999911 0 0 -1 0
0.66749358 -0.23179114 -0.99999976 0 0 -1 0
0.29392099 -1 -0.091463327 0 -1 0 0
0.21065676 -1 0.92165649 0 -1 0 0
-0.64330828 0.2800405 1.0000001 0 -0 0.99999994 0
-0.017229555 0.9954446 1.0000005 0 -0 1 0
-0.19548126 -0.64549488 1.0000001 0 -0 1 0
0.99999982 -0.16419399 0.48698634 1 -0 0 0
0.99999928 0.58107126 0.7723192 1 -0 0 0
0.66637278 0.60608566 -0.99999934 0 0 -1 0
-1 0.97461021 -0.10823858 -1 -0 -0 0
-0.61426228 -0.27707601 -1 0 0 -0.99999994 0
0.25751597 1 -0.25040051 0 0.99999994 0 0
-0.067057066 -0.085697621 1.0000005 0 -0 1 0
0.07428813 1 0.095772624 0 0.99999994 0 0
0.21456085 0.77826834 1.0000006 0 -0 1 0
0.99999934 0.87809277 0.37139487 1 -0 0 0
0.17812502 -1 0.48498094 0 -1 0 0
-1 -0.091676593 -0.10042965 -1 -0 -0 0
-0.41783518 1 0.65163535 0 1 0 0
-0.88341361 -0.39746141 1 0 -0 1 0
-0.26901519 -1 0.69712663 0 -1 0 0
1 -0.79953259 0.5287841 1 -0 0 0
1 0.56637263 -0.96582294 1 -0 0 0
1 -0.8347342 0.0037980042 1 -0 0 0
1 -0.98739123 -0.90921068 1 -0 0 0
-1 0.35908473 0.70846403 -1 -0 -0 0
-0.31943011 -1 -0.6497311 0 -1 0 0
-1 0.12003803 -0.59805429 -1 -0 -0 0
-0.5239929 0.25748146 -1 0 0 -1 0
1 0.088251472 -0.50934547 1 -0 0 0
-0.073153429 -0.55709374 1.0000002 0 -0 1 0
0.20581421 0.53487206 1.0000006 0 -0 1 0
0.70519614 -0.054650426 1.0000005 0 -0 1 0
-1 -0.95339048 -0.41190434 -1 -0 -0 0
0.9999997 0.92552251 -0.30994028 1 -0 0 0
-1 0.83585495 0.87570125 -1 -0 -0 0
0.72313643 -1 -0.70610321 0 -0.99999994 0 0
-0.23213822 1 0.55698419 0 1 0 0
0.99999952 0.58829081 0.37668952 1 -0 0 0
1 -0.096955299 0.06051318 1 -0 0 0
-0.62077796 0.57470191 1.0000001 0 -0 1 0
-0.89428985 -1 0.47560048 0 -0.99999994 0 0
0.85203075 -1 -0.73230994 0 -1 0 0
0.55167687 0.41569924 -0.99999952 0 0 -1 0
-0.29680192 1 0.51992416 0 1 0 0
0.99999994 -0.92971337 0.98920828 1 -0 0 0
-0.68129253 1 0.87998098 0 1 0 0
0.35365069 -0.83676457 1 0 -0 1 0
-1 -0.70303321 -0.41771841 -1 -0 -0 0
1 -0.71335351 0.011168303 1 -0 0 0
1 -0.47552609 -0.60938364 1 -0 0 0
-0.79553092 0.28519082 -1 0 0 -0.99999994 0
-1 0.53671318 0.93529636 -1 -0 -0 0
0.99999958 0.67831278 0.087221622 1 -0 0 0
0.59214783 -0.17193592 1.0000004 0 -0 1 0
-0.34055087 -0.72699678 -1 0 0 -0.99999994 0
1 -0.32365453 -0.62367147 1 -0 0 0
-1 0.70104986 -0.076365113 -0.99999994 -0 -0 0
1 -0.45065951 -0.15959926 0.99999994 -0 0 0
0.99999976 0.30484509 0.20784044 1 -0 0 0
0.99999982 -0.18600166 0.51569724 1 -0 0 0
0.46313304 -1 -0.36338073 0 -1 0 0
-0.037629843 -1 0.93922067 0 -1 0 0
-0.22701025 -0.58491194 1.0000002 0 -0 1 0
-1 -0.61155736 0.056977153 -0.99999994 -0 -0 0
0.7640245 1 0.89490998 0 1 0 0
-0.82144582 -1 -0.50572217 0 -1 0 0
-1 -0.096239924 0.14400911 -1 -0 -0 0
0.99999988 -0.28973687 0.47818792 1 -0 0 0
0.61856467 -0.15804851 1.0000004 0 -0 1 0
0.60050482 0.29537815 1.0000006 0 -0 1 0
0.13060796 1 -0.51087934 0 1 0 0
0.99999958 0.41678876 0.40385711 1 -0 0 0
-0.69683051 -1 0.46892536 0 -1 0 0
1 -0.79667419 -0.25643748 1 -0 0 0
-0.64564216 0.71119082 1.0000002 0 -0 1 0
-0.92935538 0.78871226 -1 0 0 -1 0
0.039777637 -1 0.86978149 0 -1 0 0
1 -0.63872755 0.39728945 1 -0 0 0
-0.93504381 -0.42751777 -1 0 0 -1 0
-1 -0.22598433 0.27719653 -1 -0 -0 0
-0.93088448 -0.98058212 -1 0 0 -1 0
1 -0.3267104 -0.7433762 0.99999994 -0 0 0
-0.027686715 0.35858202 -0.99999982 0 0 -0.99999994 0
0.78750145 -0.67280179 1.0000001 0 -0 1 0
-0.52152491 1 0.68502522 0 1 0 0
0.9598881 1 0.58043641 0 1 0 0
0.90901864 -0.20735127 1.0000005 0 -0 1 0
0.097099781 0.94709086 -0.99999946 0 0 -1 0
0.3550638 1 -0.45898587 0 1 0 0
0.20319438 1 -0.66139859 0 0.99999994 0 0
-1 -0.62895739 0.51486659 -1 -0 -0 0
1 -0.68794382 -0.39268857 1 -0 0 0
0.32456589 1 -0.96065348 0 1 0 0
-0.24100733 1 -0.18205744 0 1 0 0
1 -0.57803589 0.27912799 1 -0 0 0
-1 0.97094822 0.62638462 -1 -0 -0 0
0.19497262 0.11015916 1.0000006 0 -0 1 0
0.45003709 -0.77332222 1.0000001 0 -0 1 0
0.54359674 0.22643793 -0.99999958 0 0 -1 0
0.5525614 -1 -0.99128699 0 -1 0 0
1 -0.053316355 -0.84727144 1 -0 0 0
0.18914592 1 -0.80216563 0 1 0 0
0.30562496 -1 -0.013800502 0 -0.99999994 0 0
-0.30596924 0.26681232 1.0000004 0 -0 1 0
-0.46451759 1 0.98110294 0 1 0 0
-0.53664136 -1 -0.6996944 0 -1 0 0
0.018921554 0.96646392 -0.99999952 0 0 -1 0
0.9999997 0.91829246 -0.34495413 0.99999994 -0 0 0
0.53156316 1 0.97849333 0 1 0 0
-0.14121735 0.58125949 -0.99999976 0 0 -0.99999994 0
0.88538361 1 -0.78272843 0 1 0 0
-0.19649565 -1 -0.088934064 0 -1 0 0
-1 -0.058484435 0.0061113834 -1 -0 -0 0
0.14837682 1 -0.45233476 0 0.99999994 0 0
0.84420091 1 0.03890162 0 1 0 0
-1 -0.99965334 -0.82587337 -1 -0 -0 0
1 -0.80974871 -0.79915452 1 -0 0 0
0.39450657 0.13359267 -0.99999976 0 0 -1 0
-1 0.51917917 -0.081678033 -1 -0 -0 0
-1 -0.23040065 0.73151731 -1 -0 -0 0
1 -0.82569289 -0.95419878 1 -0 0 0
-0.88588643 -0.97990966 0.99999994 0 -0 0.99999994 0
-0.46350157 1 -0.98485601 0 1 0 0
-0.62338734 0.059717536 1.0000001 0 -0 1 0
-1 -0.69857585 0.66248715 -1 -0 -0 0
-0.58578765 -0.91689587 1.0000001 0 -0 0.99999994 0
-0.8360219 0.85694218 -1 0 0 -1 0
1 0.82073581 -0.83328205 1 -0 0 0
0.28622723 0.091972709 -0.99999982 0 0 -1 0
-0.24598241 0.3786757 1.0000005 0 -0 1 0
0.24504314 -0.3087272 1.0000004 0 -0 1 0
-0.42707926 1 -0.21475214 0 0.99999994 0 0
0.32193303 -0.050287217 -0.99999988 0 0 -1 0
0.25723845 0.45028669 1.0000006 0 -0 0.99999994 0
-0.13372922 -1 0.86575359 0 -1 0 0
0.18504713 -0.72562087 1.0000001 0 -0 1 0
1 -0.2484082 -0.85796911 1 -0 0 0
0.56956029 -0.1689336 -0.99999982 0 0 -1 0
-0.17086238 1 0.35753912 0 1 0 0
-1 -0.32868862 -0.40102863 -1 -0 -0 0
-0.74552631 0.60798097 1.0000001 0 -0 1 0
0.99999911 0.90499949 0.90794218 1 -0 0 0
0.21586549 1 0.71204185 0 1 0 0
0.050379038 0.22915483 -0.99999988 0 0 -1 0
0.29172328 -0.51939511 -1 0 0 -1 0
-0.15207371 0.67498243 1.0000005 0 -0 1 0
-0.20418718 -0.97701806 1 0 -0 1 0
0.0096583366 0.66357768 -0.99999964 0 0 -1 0
0.23432618 0.44514877 -0.99999964 0 0 -1 0
-0.80144548 0.37987232 -1 0 0 -1 0
1 -0.82188761 -0.14993908 1 -0 0 0
0.42985621 0.031313419 1.0000005 0 -0 1 0
0.6017673 1 -0.039765868 0 1 0 0
-1 -0.048081875 0.92938554 -1 -0 -0 0
-0.26093292 1 0.055408597 0 1 0 0
1 -0.30379498 0.010668189 1 -0 0 0
0.99999934 0.53336465 0.72566319 1 -0 0 0
-1 0.37467146 -0.47788131 -1 -0 -0 0
0.99999958 0.28386694 0.56998724 1 -0 0 0
-0.42508304 -1 -0.27466536 0 -1 0 0
-1 -0.63145137 0.4352378 -1 -0 -0 0
-1 0.61509335 0.98578811 -1 -0 -0 0
0.26166749 -1 0.72177625 0 -1 0 0
0.97731805 0.23847616 -0.9999994 0 0 -0.99999994 0
-0.052975297 -1 -0.020403743 0 -1 0 0
-1 -0.85073292 0.11861676 -0.99999994 -0 -0 0
-1 -0.47364354 0.0013273954 -1 -0 -0 0
-1 -0.66810298 0.6885891 -1 -0 -0 0
0.027179599 -0.82780862 -1 0 0 -1 0
0.44814551 -0.55503225 -1 0 0 -1 0
0.99999946 0.062274277 0.98496473 1 -0 0 0
1 -0.21801262 0.2128287 0.99999994 -0 0 0
-0.17754078 -1 0.51889718 0 -1 0 0
0.84339148 -0.72383678 -0.99999994 0 0 -1 0
0.99999988 0.8821367 -0.64579868 1 -0 0 0
0.1009804 -1 0.054722548 0 -1 0 0
-0.21923941 1 -0.33241391 0 1 0 0
0.13418396 -0.86043727 -1 0 0 -1 0
0.56088483 0.57542861 1.0000007 0 -0 0.99999994 0
-1 -0.090539813 0.32238829 -1 -0 -0 0
0.99999946 0.79862225 0.31116638 1 -0 0 0
0.99999923 0.76677585 0.71286058 1 -0 0 0
-1 -0.10308123 0.2898314 -1 -0 -0 0
0.91226631 1 0.084836185 0 1 0 0
-0.29913819 -0.9131304 1.0000001 0 -0 0.99999994 0
0.99999976 0.27600479 0.16932958 0.99999994 -0 0 0
-1 0.78281391 0.23311794 -1 -0 -0 0
-0.027497172 -1 0.51818722 0 -1 0 0
0.35441887 -1 0.38400233 0 -1 0 0
-0.30081391 1 -0.72473192 0 0.99999994 0 0
-0.11511666 1 0.93557054 0 1 0 0
-1 0.68819231 0.7777577 -1 -0 -0 0
-0.84409755 1 0.8547278 0 1 0 0
0.55353856 1 0.2406929 0 1 0 0
-0.87767529 -0.75356448 -1 0 0 -1 0
0.22651112 -0.93514824 -1 0 0 -0.99999994 0
-0.94939131 -1 -0.41135472 0 -1 0 0
-0.77481794 -1 0.28984857 0 -1 0 0
0.92925078 -1 -0.35091606 0 -1 0 0
-0.47979355 -1 0.759884 0 -1 0 0
0.022915959 -1 0.53809893 0 -1 0 0
0.44985133 -1 -0.5904004 0 -1 0 0
0.67028451 1 -0.77893353 0 0.99999994 0 0
0.062768877 -0.019410636 -1 0 0 -0.99999994 0
-1 -0.9871062 0.28101468 -1 -0 -0 0
-1 0.021850467 -0.26230836 -0.99999994 -0 -0 0
0.9570958 -0.12654686 1.0000005 0 -0 1 0
-1 -0.6563952 -0.3105191 -1 -0 -0 0
-0.60474277 -1 0.88019967 0 -1 0 0
0.30610061 -1 0.50574529 0 -1 0 0
1 -0.35874778 0.19760619 1 -0 0 0
0.8667416 1 0.33638039 0 1 0 0
-1 0.092968822 0.42732465 -1 -0 -0 0
0.37505949 -1 0.08526206 0 -1 0 0
0.4362694 -0.17643601 1.0000005 0 -0 1 0
-1 -0.28314018 0.55210239 -0.99999994 -0 -0 0
-1 0.97094077 0.01727742 -1 -0 -0 0
0.83957255 0.54998922 1.0000007 0 -0 1 0
-0.033753037 0.32074854 -0.99999988 0 0 -0.99999994 0
0.4511143 0.6946032 1.0000007 0 -0 1 0
-1 -0.85752106 0.2142871 -1 -0 -0 0
-1 -0.59944391 0.4525739 -1 -0 -0 0
1 -0.56765974 0.080293469 1 -0 0 0
-1 0.20188057 -0.20849752 -1 -0 -0 0
-0.8840099 1 0.34786481 0 1 0 0
0.83069956 -0.59808302 1.0000001 0 -0 1 0
-0.95813227 0.12313616 1 0 -0 1 0
0.38366935 -0.27967918 1.0000004 0 -0 0.99999994 0
-0.96549976 -1 0.98108643 0 -1 0 0
0.26963735 -1 -0.75257432 0 -1 0 0
-0.015159607 1 0.62867928 0 1 0 0
-1 0.37536138 0.96681947 -1 -0 -0 0
-0.6327703 0.31854081 1.0000001 0 -0 1 0
-0.31725442 1 0.19174141 0 1 0 0
0.064034283 0.71136898 -0.99999958 0 0 -0.99999994 0
0.65508944 1 -0.83021957 0 1 0 0
-0.67961919 0.23813927 1.0000001 0 -0 1 0
0.99999988 0.44093919 -0.16268772 0.99999994 -0 0 0
-0.48025057 -0.6898756 -1 0 0 -0.99999994 0
-0.013386309 1 -0.12131155 0 1 0 0
-0.82274979 -1 0.19096994 0 -1 0 0
-0.088044941 1 -0.91665161 0 1 0 0
0.64094889 0.99425524 1.0000008 0 -0 1 0
0.28015947 -0.070669532 1.0000005 0 -0 1 0
0.48322314 0.81345463 1.0000007 0 -0 1 0
-0.030783057 1 0.59199226 0 1 0 0
1 -0.88180971 -0.7064563 1 -0 0 0
-0.30383253 -0.35616887 -1 0 0 -1 0
0.016906023 0.84357268 -0.99999958 0 0 -1 0
0.46374133 -1 -0.7536568 0 -1 0 0
-0.62397003 -0.68514407 1.0000002 0 -0 1 0
-0.50532424 -1 -0.48753536 0 -1 0 0
0.79039049 0.11610419 -0.99999952 0 0 -1 0
0.99999928 0.8929882 0.52618968 1 -0 0 0
0.9999994 0.2508263 0.96561682 1 -0 0 0
0.99999958 0.83874172 -0.058223099 1 -0 0 0
0.97858495 1 -0.37125203 0 1 0 0
-0.92872244 1 0.85994142 0 0.99999994 0 0
-0.83261162 -1 0.084116697 0 -1 0 0
-0.75844038 -0.48821354 -1 0 0 -1 0
-0.86203623 -0.69105434 1 0 -0 1 0
1 0.23243761 -0.36596984 1 -0 0 0
-1 0.011910319 0.027059913 -1 -0 -0 0
-1 0.58809304 -0.56360543 -1 -0 -0 0
1 -0.71506143 0.37873137 1 -0 0 0
-0.16532373 1 -0.039492309 0 1 0 0
1 -0.98114038 0.27570099 1 -0 0 0
0.56773901 1 -0.60283315 0 1 0 0
-1 0.72762859 -0.28892517 -1 -0 -0 0
0.12912619 0.64617217 -0.99999958 0 0 -1 0
0.25235447 0.65554094 1.0000006 0 -0 1 0
-0.19146013 1 0.9736985 0 1 0 0
0.46824801 -1 -0.43846691 0 -1 0 0
0.73527128 0.56042677 -0.99999934 0 0 -1 0
-1 0.41287708 -0.63781571 -1 -0 -0 0
0.99999946 0.015151262 0.99222618 1 -0 0 0
-0.40605175 0.50502706 1.0000002 0 -0 1 0
0.63538086 -0.48163992 -0.99999994 0 0 -1 0
-0.16256779 0.02815783 -1 0 0 -1 0
0.1053642 1 -0.5569303 0 1 0 0
-1 -0.14570761 0.054004192 -1 -0 -0 0
-1 0.18097126 -0.76504433 -1 -0 -0 0
0.99999976 0.042534113 0.45172226 1 -0 0 0
-0.90290177 -1 0.33197904 0 -1 0 0
0.0055930894 -0.99056304 1 0 -0 1 0
1 0.53141117 -0.77781528 0.99999994 -0 0 0
-1 -0.79108918 -0.3730185 -1 -0 -0 0
0.3362447 -1 0.73215914 0 -1 0 0
-1 0.96842575 0.20529914 -1 -0 -0 0
0.73353547 0.27501744 1.0000006 0 -0 0.99999994 0
0.39403701 1 0.21557626 0 1 0 0
-0.59434271 -0.70709276 1.0000002 0 -0 0.99999994 0
0.52410293 -1 0.49395356 0 -1 0 0
1 -0.98656827 0.15504444 1 -0 0 0
0.99999988 -0.66076839 0.92968392 1 -0 0 0
0.26145595 -0.44289827 1.0000002 0 -0 1 0
0.5164476 -1 -0.76163232 0 -1 0 0
-1 0.47703242 -0.9607116 -0.99999994 -0 -0 0
-0.20332342 1 0.25796109 0 1 0 0
-1 0.86798543 0.42401057 -1 -0 -0 0
0.83682317 0.33561289 1.0000006 0 -0 1 0
0.28082779 -0.9661395 -1 0 0 -1 0
0.61777091 -1 -0.099630713 0 -1 0 0
-0.870502 0.36170435 -1 0 0 -1 0
-0.44803166 -0.17842287 -1 0 0 -1 0
0.60151815 1 0.028653912 0 1 0 0
-0.89993513 -0.65467572 -1 0 0 -0.99999994 0
-0.81560415 -0.60596985 -1 0 0 -0.99999994 0
1 -0.41000408 -0.25991103 1 -0 0 0
0.29483199 1 0.76780844 0 1 0 0
-1 0.30841464 0.49901682 -1 -0 -0 0
-0.20755374 -1 -0.5055207 0 -1 0 0
1 -0.96671712 0.99515575 1 -0 0 0
0.93668574 0.82872605 1.000001 0 -0 0.99999994 0
-0.87830222 0.094798684 1 0 -0 1 0
-1 0.64659476 -0.1808852 -1 -0 -0 0
0.48936611 -0.26609638 -0.99999988 0 0 -1 0
1 -0.79908466 -0.27154922 1 -0 0 0
-0.076008677 -1 -0.59108305 0 -0.99999994 0 0
-1 0.83397776 -0.45738125 -1 -0 -0 0
0.40606159 1 -0.22992519 0 1 0 0
0.50845921 -1 0.035391092 0 -0.99999994 0 0
-1 -0.42330205 -0.1388393 -1 -0 -0 0
-0.88614219 -0.39978629 -1 0 0 -1 0
-1 0.80448866 -0.68907905 -1 -0 -0 0
1 -0.11507535 -0.28598753 1 -0 0 0
-0.96758622 1 -0.057011262 0 1 0 0
-1 -0.33224475 -0.63016707 -0.99999994 -0 -0 0
0.80713439 1 0.8822124 0 1 0 0
0.99999928 0.54977077 0.84122479 1 -0 0 0
-0.23453629 -1 0.39870805 0 -1 0 0
-0.7565372 0.87795925 -0.99999994 0 0 -1 0
-1 0.54937232 -0.849733 -1 -0 -0 0
-0.76405072 -1 0.24237061 0 -1 0 0
-0.91177845 -1 -0.18908191 0 -1 0 0
0.20888507 -0.51949859 -1 0 0 -0.99999994 0
0.33866215 1 0.1843973 0 0.99999994 0 0
0.47285247 1 0.81387091 0 1 0 0
-1 0.80987656 0.28649485 -1 -0 -0 0
-0.87810361 -0.22088969 -1 0 0 -1 0
0.99999928 0.84097183 0.54072475 1 -0 0 0
-1 0.62231565 -0.88256717 -0.99999994 -0 -0 0
0.28986096 -0.50956047 -1 0 0 -1 0
-0.54375803 1 0.21666703 0 1 0 0
-0.69183415 0.42828751 -1 0 0 -1 0
0.67512834 1 0.82171631 0 0.99999994 0 0
-0.50293624 -1 -0.71897292 0 -1 0 0
0.78181523 -0.24362189 1.0000004 0 -0 1 0
0.52303499 0.18163845 1.0000006 0 -0 1 0
-0.96833432 -0.43397224 -1 0 0 -1 0
-1 0.54187381 -0.8149929 -1 -0 -0 0
0.91617501 1 -0.81485409 0 1 0 0
-0.30755958 -0.45625859 1.0000002 0 -0 1 0
-0.28545344 1 0.11870718 0 1 0 0
-0.082170293 -0.10834873 1.0000005 0 -0 1 0
-0.57991451 -1 -0.7039755 0 -1 0 0
1 -0.19540405 -0.97363144 1 -0 0 0
0.086069942 -1 -0.99708986 0 -1 0 0
-0.11139983 0.33785772 1.0000004 0 -0 1 0
0.99999952 0.91825372 0.020051628 1 -0 0 0
-0.96528697 -0.79173148 -1 0 0 -0.99999994 0
1 -0.84612465 0.072099589 1 -0 0 0
0.34359694 -0.17704809 -0.99999994 0 0 -1 0
-1 -0.93789756 -0.81805933 -1 -0 -0 0
-0.66859013 0.054260373 1.0000001 0 -0 1 0
0.76078546 -0.28168905 -0.99999976 0 0 -0.99999994 0
-1 0.07381767 -0.017590046 -1 -0 -0 0
0.83903086 -0.56569052 1.0000001 0 -0 1 0
0.81684786 -0.57899964 -0.99999988 0 0 -1 0
-0.90017784 0.14776969 1.0000001 0 -0 1 0
1 0.86811852 -0.86561072 1 -0 0 0
0.99999988 0.73721337 -0.47171217 1 -0 0 0
0.99999988 0.58846176 -0.34568051 1 -0 0 0
-0.30065262 1 0.34400201 0 1 0 0
-0.68735874 -1 0.3782537 0 -1 0 0
0.76358581 -1 -0.066600278 0 -0.99999994 0 0
0.99999994 -0.32531559 0.49472904 1 -0 0 0
0.73403698 0.70904255 1.0000008 0 -0 1 0
-0.64222431 -0.47031987 -1 0 0 -1 0
-0.55262917 0.64379853 1.0000002 0 -0 1 0
-1 0.84435213 -0.86987722 -0.99999994 -0 -0 0
-0.14420927 -1 0.64454508 0 -1 0 0
-1 0.18714738 -0.57298207 -1 -0 -0 0
-0.56575489 1 0.77668834 0 1 0 0
-0.61632842 -0.079344749 1.0000002 0 -0 1 0
0.99999976 0.65813869 -0.23805442 1 -0 0 0
-0.22735238 0.89087915 1.0000005 0 -0 1 0
-0.39027238 -1 -0.73361552 0 -1 0 0
-0.78545904 1 0.62337172 0 1 0 0
-1 0.33554029 0.36884665 -1 -0 -0 0
0.89832115 1 -0.39802986 0 1 0 0
-1 0.392167 0.68894875 -1 -0 -0 0
0.34309006 -0.88679886 -1 0 0 -1 0
1 -0.16656876 0.19972008 1 -0 0 0
0.99999982 0.10545409 0.24968988 1 -0 0 0
0.85841346 -0.78542715 1 0 -0 0.99999994 0
0.68449891 -1 -0.68846285 0 -1 0 0
0.99999964 0.56476605 0.17530939 1 -0 0 0
0.62231159 -1 -0.56814504 0 -0.99999994 0 0
-1 0.08160837 0.82112139 -1 -0 -0 0
1 -0.7092433 -0.87650448 1 -0 0 0
1 -0.44895434 -0.19089392 1 -0 0 0
-0.13814032 -1 -0.16390181 0 -1 0 0
-0.93878698 -0.80349779 1 0 -0 0.99999994 0
-0.20013969 -0.94757771 1 0 -0 1 0
0.50479376 1 -0.55809623 0 1 0 0
-0.72586691 -0.34336948 -1 0 0 -1 0
-0.7055794 -1 0.49224806 0 -1 0 0
0.99999976 0.81352675 -0.35239735 1 -0 0 0
0.32553947 -0.66410887 -1 0 0 -1 0
-1 -0.79089284 0.32781398 -1 -0 -0 0
-0.13263631 -1 0.30882078 0 -1 0 0
0.89127308 1 -0.15005316 0 1 0 0
1 -0.4954679 0.28745252 0.99999994 -0 0 0
-0.50780976 -0.66576874 -1 0 0 -1 0
0.55406123 -0.33319414 1.0000002 0 -0 1 0
0.79851151 -1 -0.95750827 0 -0.99999994 0 0
-0.10823601 1 -0.84299743 0 0.99999994 0 0
0.92845553 -1 -0.78862858 0 -1 0 0
1 -0.59536141 -0.77929568 0.99999994 -0 0 0
0.22060931 -0.31834722 -1 0 0 -1 0
0.99999934 0.72549725 0.61158192 1 -0 0 0
-0.64190513 -0.39418709 1.0000001 0 -0 1 0
-0.50321996 -1 0.37074625 0 -0.99999994 0 0
-0.073167473 0.68665409 1.0000005 0 -0 0.99999994 0
-0.38218319 0.41275895 1.0000004 0 -0 1 0
0.55365765 1 0.23069768 0 1 0 0
0.49814689 -0.8681196 -1 0 0 -0.99999994 0
0.99999928 0.80434573 0.55343449 0.99999994 -0 0 0
0.28367603 0.50504249 1.0000006 0 -0 1 0
-1 0.37004125 -0.65323538 -1 -0 -0 0
-0.96947747 -0.15938878 1 0 -0 1 0
0.69494271 -1 -0.79234266 0 -1 0 0
0.41535097 -1 0.47098118 0 -1 0 0
-0.57289392 1 -0.59433419 0 0.99999994 0 0
-0.11797035 0.50894105 1.0000004 0 -0 1 0
-1 -0.42925322 -0.11223334 -1 -0 -0 0
-1 -0.48508984 0.39025199 -1 -0 -0 0
-0.087838173 -0.56382108 -1 0 0 -1 0
0.51530039 -1 0.37626171 0 -1 0 0
-0.99856025 0.471573 1 0 -0 1 0
-1 -0.32419813 0.12259507 -1 -0 -0 0
-0.50962895 0.046505928 1.0000002 0 -0 0.99999994 0
0.0068067349 -0.58893156 1.0000002 0 -0 1 0
0.99999934 0.60517991 0.69406497 1 -0 0 0
0.054787636 1 -0.50088865 0 1 0 0
-0.85918069 1 -0.25442415 0 1 0 0
-1 -0.046533108 -0.87189233 -1 -0 -0 0
-0.94092059 -1 0.77855432 0 -1 0 0
0.38252664 -1 0.10956693 0 -1 0 0
0.11087918 -1 -0.38999951 0 -1 0 0
-1 -0.059550107 -0.081691653 -1 -0 -0 0
-0.74221122 -0.33749735 -1 0 0 -1 0
-0.71567261 1 0.64984715 0 1 0 0
-1 -0.94148088 -0.58967233 -1 -0 -0 0
0.52402651 -1 -0.62955284 0 -1 0 0
1 -0.1333124 -0.66092688 1 -0 0 0
-1 -0.33893061 -0.25422448 -1 -0 -0 0
-0.66366255 -1 0.69922292 0 -1 0 0
-1 -0.55944616 0.17083049 -1 -0 -0 0
0.9999997 0.99417341 -0.4626078 1 -0 0 0
0.65383124 -0.8181783 -1 0 0 -1 0
-0.053893089 -1 -0.36880922 0 -0.99999994 0 0
0.37428963 0.4498868 1.0000007 0 -0 1 0
0.21682964 1 0.084675498 0 1 0 0
0.15303999 -1 0.76281929 0 -1 0 0
0.51424181 -0.37713623 -0.99999994 0 0 -1 0
-1 0.8745172 0.95484233 -0.99999994 -0 -0 0
0.85774171 -1 -0.66055346 0 -1 0 0
0.62580037 -1 0.78089774 0 -1 0 0
0.36061132 1 0.95318466 0 1 0 0
-1 -0.040828705 0.5813427 -1 -0 -0 0
-0.90797108 -0.88382137 1 0 -0 1 0
0.99999976 0.072009802 0.38987738 0.99999994 -0 0 0
-1 -0.93763065 0.69589627 -1 -0 -0 0
-0.77265328 1 0.24681665 0 1 0 0
0.33458483 -1 0.98978388 0 -1 0 0
1 -0.73763233 0.16966559 1 -0 0 0
-1 -0.05204618 0.16443002 -1 -0 -0 0
1 0.78436416 -0.77887654 0.99999994 -0 0 0
0.6888448 1 0.25985846 0 1 0 0
-0.25184238 -1 0.098598957 0 -1 0 0
1 -0.92222422 -0.10769139 1 -0 0 0
-1 0.064695768 0.91180736 -1 -0 -0 0
-0.54466033 1 -0.5518527 0 1 0 0
0.45349932 -1 0.2510016 0 -1 0 0
0.31146836 -0.16103494 -0.99999994 0 0 -1 0
-0.71842957 0.082125068 1.0000001 0 -0 1 0
