# .PCD v0.7 - Point Cloud Data file format
VERSION 0.7
FIELDS x y z normal_x normal_y normal_z curvature
SIZE 4 4 4 4 4 4 4
TYPE F F F F F F F
COUNT 1 1 1 1 1 1 1
WIDTH 1200
HEIGHT 1
VIEWPOINT 0 0 0 1 0 0 0
POINTS 1200
DATA ascii
0.17205447 -0.5 0.034169912 0 -0.99999994 0 0
-0.5 0.44293493 -0.350465 -1 0 0 0
-0.5 -0.1766715 -0.094375968 -1 0 0 0
0.5 0.13217106 0.031462483 1 0 0 0
-0.15142018 -0.5 0.23016727 0 -1 0 0
0.044533432 -0.25431079 -0.5 0 0 -0.99999994 0
0.46142352 0.5 -0.21127075 0 1 0 0
-0.5 0.38628381 -0.15882963 -1 0 0 0
-0.29192317 0.5 0.35237965 0 1 0 0
-0.42688021 0.42433953 0.5 0 0 1 0
-0.12080485 0.36686075 -0.5 0 0 -1 0
0.5 -0.47569847 -0.2249375 1 0 0 0
-0.40178043 -0.5 0.27674037 0 -1 0 0
0.19644544 0.5 -0.19385433 0 1 0 0
0.5 0.40227279 -0.098802119 0.99999994 0 0 0
0.08132273 -0.5 -0.20899665 0 -1 0 0
-0.5 -0.35461706 0.206976 -0.99999994 0 0 0
-0.42806005 -0.46477437 -0.5 0 0 -1 0
-0.5 0.2341316 0.21578345 -1 0 0 0
0.5 -0.31468016 -0.22536355 1 0 0 0
0.11590207 0.5 -0.11044645 0 1 0 0
0.5 -0.21608406 -0.44117218 0.99999994 0 0 0
-0.10346362 0.086989582 0.5 0 0 1 0
-0.37270975 -0.5 -0.13282537 0 -1 0 0
-0.5 0.38428396 -0.44062686 -1 0 0 0
-0.25717014 0.26783419 0.5 0 0 1 0
-0.05595687 0.5 0.46707681 0 1 0 0
-0.4080714 0.45620131 -0.5 0 0 -1 0
-0.5 -0.42198646 -0.47708824 -1 0 0 0
-0.36116442 0.5 0.090318292 0 1 0 0
0.081675589 -0.5 -0.27854973 0 -1 0 0
-0.5 -0.29985178 -0.34892008 -0.99999994 0 0 0
-0.5 -0.38468856 0.22613287 -1 0 0 0
0.024016142 -0.36120003 0.5 0 0 0.99999994 0
-0.43059632 0.5 0.032372475 0 1 0 0
-0.22867528 0.34544837 -0.5 0 0 -1 0
-0.46791804 -0.5 -0.29872105 0 -1 0 0
-0.5 -0.4833262 0.27134627 -0.99999994 0 0 0
0.5 0.48746276 -0.2260952 1 0 0 0
0.13927448 0.5 0.21419615 0 1 0 0
-0.30748737 -0.5 0.059390783 0 -1 0 0
0.41198766 0.5 -0.22489816 0 1 0 0
-0.5 -0.40370476 -0.4506101 -0.99999994 0 0 0
0.27030814 0.083874941 -0.5 0 0 -1 0
-0.083314896 0.27369022 -0.5 0 0 -1 0
-0.41526777 0.4053736 -0.5 0 0 -0.99999994 0
-0.24717218 0.2228837 -0.5 0 0 -0.99999994 0
0.1770581 -0.5 -0.18429273 0 -1 0 0
0.19816327 0.18403745 0.5 0 0 1 0
0.089415967 0.18592414 -0.5 0 0 -0.99999994 0
0.5 0.34457558 0.48834744 1 0 0 0
0.5 0.19988394 0.1493735 1 0 0 0
-0.5 0.45034713 0.06561619 -1 0 0 0
0.5 -0.25660169 -0.46091932 1 0 0 0
-0.37977782 0.07413578 0.5 0 0 1 0
0.35208809 -0.45455426 -0.5 0 0 -1 0
0.5 0.46372455 -0.21796191 1 0 0 0
-0.5 -0.46038651 0.23570776 -1 0 0 0
-0.46526372 0.5 -0.31298465 0 0.99999994 0 0
-0.3185181 0.5 0.33366346 0 1 0 0
0.063078105 -0.5 -0.043227196 0 -1 0 0
0.24659979 0.39730501 -0.5 0 0 -0.99999994 0
-0.39619464 0.15624666 0.5 0 0 1 0
0.39574385 0.11428463 -0.5 0 0 -1 0
0.41123122 -0.5 -0.43699962 0 -0.99999994 0 0
-0.5 0.079203546 -0.13172609 -1 0 0 0
0.16485852 0.5 -0.34860396 0 1 0 0
-0.076234221 0.5 0.26877588 0 0.99999994 0 0
0.5 0.14862284 -0.44727376 1 0 0 0
-0.22002974 0.5 0.039988846 0 1 0 0
-0.026905268 0.19706196 -0.5 0 0 -0.99999994 0
-0.28451395 -0.41734797 -0.5 0 0 -1 0
0.49521768 -0.019574285 -0.5 0 0 -1 0
0.10787296 0.29803619 0.5 0 0 1 0
-0.31328809 0.45489132 0.5 0 0 1 0
-0.17985782 0.12980503 0.5 0 0 0.99999994 0
0.082888782 0.18172401 0.5 0 0 1 0
0.33152235 -0.5 0.37566447 0 -1 0 0
0.15070605 0.5 0.028239548 0 1 0 0
-0.20522375 0.5 -0.37331659 0 1 0 0
0.49045476 -0.0085073113 0.5 0 0 1 0
-0.3478145 0.44394618 0.5 0 0 1 0
0.19862568 0.5 0.038059175 0 1 0 0
-0.042427957 -0.5 0.27775717 0 -1 0 0
0.5 0.068391114 0.017653029 1 0 0 0
0.5 0.32353783 -0.47632253 1 0 0 0
0.5 -0.36975557 0.13847619 1 0 0 0
-0.5 0.35252213 0.30816329 -1 0 0 0
-0.5 -0.46450853 0.0208565 -1 0 0 0
0.43069595 0.17824435 -0.5 0 0 -1 0
-0.5 0.17470402 0.074804574 -1 0 0 0
0.43601653 -0.43955639 -0.5 0 0 -1 0
0.5 0.26924902 0.037779212 0.99999994 0 0 0
0.5 0.11514449 0.19741088 1 0 0 0
0.42715591 0.5 -0.29700577 0 1 0 0
-0.5 0.043312937 0.49620506 -1 0 0 0
0.5 0.16707861 0.45932245 1 0 0 0
-0.29706949 -0.15306824 -0.5 0 0 -1 0
0.13752078 -0.079107404 0.5 0 0 1 0
0.5 0.36195916 0.30983925 1 0 0 0
-0.23471695 0.11259151 0.5 0 0 1 0
-0.3126753 0.5 0.13404047 0 1 0 0
0.46850729 0.5 0.23702812 0 1 0 0
-0.31595337 -0.5 -0.22830689 0 -1 0 0
-0.43466896 0.48094493 -0.5 0 0 -1 0
0.5 -0.40638649 0.0156129 1 0 0 0
0.47073799 -0.5 -0.35500777 0 -1 0 0
-0.5 0.40651494 -0.20346832 -0.99999994 0 0 0
0.45830697 -0.5 0.48625904 0 -1 0 0
0.5 -0.36778438 0.49350673 1 0 0 0
-0.5 -0.45141286 0.19001299 -0.99999994 0 0 0
0.47729629 -0.5 -0.39826137 0 -1 0 0
-0.088176638 -0.5 0.38407832 0 -1 0 0
0.17348242 0.5 0.2806657 0 0.99999994 0 0
-0.41072464 -0.5 0.42592281 0 -1 0 0
-0.3095217 -0.5 -0.13137123 0 -1 0 0
-0.48296934 -0.5 -0.26574314 0 -1 0 0
0.34970844 -0.22625238 0.5 0 0 1 0
-0.47878996 -0.022599846 0.5 0 0 1 0
0.15471423 -0.5 0.34985393 0 -1 0 0
0.5 0.29935759 0.39820912 1 0 0 0
0.5 -0.020741761 -0.12728363 0.99999994 0 0 0
0.2892049 0.33316654 -0.5 0 0 -1 0
-0.2580319 0.25802225 0.5 0 0 1 0
-0.5 0.38699734 -0.15124702 -1 0 0 0
0.5 -0.36454415 0.21636012 1 0 0 0
0.31178349 -0.5 0.22032297 0 -1 0 0
0.47232524 -0.059553325 0.5 0 0 1 0
-0.073772177 -0.11016026 -0.5 0 0 -1 0
-0.28130507 -0.5 0.10590875 0 -1 0 0
0.14250612 -0.10562575 -0.5 0 0 -1 0
0.13540147 -0.5 -0.12253898 0 -1 0 0
-0.3735984 0.5 0.068355411 0 1 0 0
-0.017921329 -0.5 0.46796274 0 -1 0 0
-0.24054998 0.31501311 0.5 0 0 1 0
0.39909369 -0.033085495 -0.5 0 0 -1 0
0.18002066 -0.5 -0.16412896 0 -1 0 0
0.30773193 0.43123466 0.5 0 0 1 0
-0.45052654 0.5 -0.00095629692 0 1 0 0
0.41070241 -0.38410813 -0.5 0 0 -1 0
0.31252214 -0.5 0.44015869 0 -1 0 0
-0.25126305 0.5 -0.34505898 0 1 0 0
0.21992853 -0.058798194 -0.5 0 0 -1 0
-0.36439264 -0.5 -0.34700668 0 -1 0 0
-0.16089773 0.20803452 -0.5 0 0 -1 0
-0.5 -0.36286032 0.45591542 -1 0 0 0
-0.5 0.39285332 0.42139643 -1 0 0 0
0.40719467 0.47477943 0.5 0 0 1 0
-0.16483742 0.42202204 -0.5 0 0 -1 0
0.086531222 -0.2817952 -0.5 0 0 -1 0
0.27831733 -0.44265956 -0.5 0 0 -1 0
0.30973727 -0.13756484 -0.5 0 0 -1 0
0.37600631 0.5 0.46172395 0 1 0 0
0.4923383 0.5 0.015051901 0 1 0 0
0.068713844 0.5 0.12643024 0 1 0 0
0.13928163 -0.5 0.36877441 0 -1 0 0
-0.17323816 0.31334323 0.5 0 0 1 0
0.37257153 0.5 -0.079731524 0 0.99999994 0 0
-0.03203389 0.36057425 0.5 0 0 1 0
0.5 0.065233946 -0.047520757 1 0 0 0
-0.5 0.35869858 0.49443367 -1 0 0 0
0.27890217 -0.5 -0.036219597 0 -1 0 0
0.5 0.4130466 -0.013063759 0.99999994 0 0 0
0.34449378 -0.5 0.078959763 0 -1 0 0
-0.5 0.175394 0.47725105 -1 0 0 0
-0.5 -0.22661471 0.4397217 -1 0 0 0
0.5 0.061651289 0.44635797 1 0 0 0
-0.11744976 0.5 -0.47927284 0 0.99999994 0 0
-0.5 -0.36518344 -0.14418784 -0.99999994 0 0 0
-0.5 -0.24344015 -0.2166504 -1 0 0 0
-0.46666324 -0.20906639 0.5 0 0 1 0
-0.17014936 0.5 -0.34553009 0 0.99999994 0 0
0.092585862 -0.5 -0.055187583 0 -1 0 0
0.48466355 -0.27028888 -0.5 0 0 -1 0
-0.44996792 -0.5 0.38894451 0 -1 0 0
0.10165244 -0.13484043 -0.5 0 0 -1 0
-0.026753187 0.5 -0.2098124 0 1 0 0
0.31960791 0.5 0.19935858 0 1 0 0
-0.5 -0.13783401 0.21362548 -1 0 0 0
0.5 0.35986251 0.068881094 1 0 0 0
0.08526513 0.067502677 -0.5 0 0 -1 0
-0.15946099 -0.5 -0.061079174 0 -0.99999994 0 0
-0.5 0.32731634 -0.032893658 -1 0 0 0
-0.39608455 -0.0073708296 -0.5 0 0 -1 0
-0.04722625 -0.5 0.092488527 0 -1 0 0
-0.19083905 0.5 -0.30864418 0 1 0 0
0.22863203 -0.38172305 0.5 0 0 1 0
-0.5 -0.26098636 -0.089383066 -1 0 0 0
-0.076714396 0.11646694 0.5 0 0 1 0
-0.5 -0.092517436 -0.045581758 -1 0 0 0
0.44165963 -0.32734758 -0.5 0 0 -1 0
0.063056886 0.5 -0.41161573 0 1 0 0
-0.48647359 0.5 0.16147277 0 1 0 0
0.36694652 -0.5 0.42373472 0 -1 0 0
-0.5 0.2700904 -0.17935938 -1 0 0 0
0.1634441 0.18279016 0.5 0 0 1 0
-0.5 -0.23394969 -0.30643386 -1 0 0 0
-0.45782751 -0.5 0.29324579 0 -1 0 0
-0.5 0.40371054 -0.066675931 -1 0 0 0
-0.44063959 -0.5 0.17028755 0 -0.99999994 0 0
0.215841 -0.5 -0.35989314 0 -1 0 0
0.5 -0.056988597 -0.36500657 0.99999994 0 0 0
-0.054794252 0.40644664 0.5 0 0 1 0
0.5 0.1210503 0.11360508 1 0 0 0
-0.5 -0.31729537 0.16265142 -1 0 0 0
0.077481717 0.5 -0.40982997 0 1 0 0
-0.3320803 0.5 0.27387416 0 1 0 0
-0.30105752 -0.5 0.12597573 0 -1 0 0
-0.37997591 0.5 0.25501388 0 1 0 0
-0.085020214 -0.5 0.06515944 0 -1 0 0
-0.14852774 -0.5 0.48088104 0 -1 0 0
-0.5 -0.46491718 0.37636316 -0.99999994 0 0 0
-0.20657891 -0.028052568 -0.5 0 0 -1 0
-0.5 0.38501319 0.1980904 -1 0 0 0
0.33311504 0.5 0.33570641 0 1 0 0
0.5 0.23198801 0.23952925 1 0 0 0
0.041813314 -0.5 -0.24346364 0 -1 0 0
-0.2283445 -0.21396607 -0.5 0 0 -1 0
0.19033879 -0.5 0.23907125 0 -0.99999994 0 0
-0.5 -0.34418648 -0.072906792 -1 0 0 0
-0.38642964 0.5 -0.27691621 0 1 0 0
0.023702621 -0.5 0.4426747 0 -1 0 0
-0.25391519 -0.5 0.45917147 0 -1 0 0
-0.04458186 0.5 -0.41471589 0 1 0 0
-0.5 -0.47188425 -0.2064302 -1 0 0 0
0.17460942 -0.065285921 -0.5 0 0 -1 0
-0.20832479 -0.31495458 0.5 0 0 1 0
0.11635238 -0.46536025 0.5 0 0 1 0
-0.15650356 0.5 0.35540885 0 1 0 0
-0.5 0.1734252 -0.39018422 -1 0 0 0
0.5 0.25051725 0.35537273 1 0 0 0
-0.5 -0.21007359 0.41626918 -1 0 0 0
0.3524698 0.17788267 -0.5 0 0 -1 0
0.5 -0.43914157 0.20065683 1 0 0 0
-0.075007617 0.48385143 0.5 0 0 1 0
0.31389052 -0.16796678 -0.5 0 0 -1 0
0.34450823 -0.32414061 -0.5 0 0 -1 0
-0.038758278 -0.41041988 0.5 0 0 1 0
-0.36234629 -0.5 0.046129584 0 -1 0 0
0.13860977 0.5 0.38577476 0 1 0 0
0.5 0.11363721 -0.48626477 0.99999994 0 0 0
0.31215659 -0.2485238 -0.5 0 0 -1 0
-0.16060063 0.21477181 -0.5 0 0 -1 0
0.5 -0.38927329 -0.40491056 0.99999994 0 0 0
-0.44852656 0.5 0.38611817 0 1 0 0
-0.5 -0.021814764 0.16271412 -1 0 0 0
-0.5 -0.37637562 0.077623844 -1 0 0 0
0.5 -0.072261751 -0.075784132 1 0 0 0
-0.076046795 0.5 0.11871704 0 1 0 0
-0.0015690923 0.5 0.37165171 0 1 0 0
-0.5 0.16870284 -0.2401875 -1 0 0 0
-0.5 -0.45517212 0.075179696 -0.99999994 0 0 0
0.095618427 -0.036494792 -0.5 0 0 -1 0
-0.046551734 -0.5 -0.39487591 0 -1 0 0
0.5 0.23590115 -0.47370896 1 0 0 0
0.078345478 -0.27257389 -0.5 0 0 -1 0
-0.5 -0.12045646 -0.35593027 -1 0 0 0
0.04305166 -0.43049467 0.5 0 0 1 0
-0.069734693 0.5 0.030786872 0 1 0 0
0.46453929 -0.48795077 0.5 0 0 0.99999994 0
-0.35169435 -0.5 0.072988033 0 -1 0 0
0.5 0.39809152 -0.37755737 1 0 0 0
-0.017224014 0.5 -0.16840297 0 1 0 0
0.026168257 0.3723509 0.5 0 0 0.99999994 0
-0.5 -0.41201797 0.14854455 -0.99999994 0 0 0
0.5 0.14055395 0.14897719 1 0 0 0
0.5 0.2446636 -0.19451264 1 0 0 0
-0.29743546 0.5 -0.0019881129 0 1 0 0
-0.5 0.30222094 -0.36536551 -1 0 0 0
-0.077821076 0.061078608 0.5 0 0 1 0
-0.02037552 -0.45130596 0.5 0 0 1 0
-0.34903687 0.26297912 -0.5 0 0 -1 0
0.42538947 -0.5 -0.034859896 0 -1 0 0
-0.3484813 -0.075108171 -0.5 0 0 -1 0
-0.030519843 0.25544566 0.5 0 0 1 0
0.5 -0.46195954 -0.034362912 1 0 0 0
-0.33613926 -0.5 0.48285556 0 -1 0 0
0.32731545 -0.24588454 0.5 0 0 1 0
-0.39305961 0.15313709 -0.5 0 0 -1 0
0.11494255 0.5 0.1011194 0 1 0 0
0.028184772 0.5 -0.29411423 0 1 0 0
0.11973894 -0.082140625 0.5 0 0 1 0
-0.5 -0.16500062 0.15272415 -1 0 0 0
-0.45176363 -0.20874286 -0.5 0 0 -1 0
0.26893321 -0.22071445 0.5 0 0 1 0
-0.41631028 -0.072997868 -0.5 0 0 -1 0
-0.41452613 -0.059434295 -0.5 0 0 -1 0
-0.33553809 0.38880605 -0.5 0 0 -1 0
-0.5 -0.27052432 -0.46642888 -1 0 0 0
-0.16787153 0.5 0.4170084 0 0.99999994 0 0
-0.5 -0.27006203 -0.07611531 -1 0 0 0
-0.14701563 -0.5 0.10790575 0 -1 0 0
-0.5 0.4549526 -0.34311956 -1 0 0 0
0.46016622 -0.10162067 -0.5 0 0 -0.99999994 0
-0.17458349 -0.22485489 0.5 0 0 1 0
0.46116239 -0.5 0.15885526 0 -1 0 0
0.27622718 0.45018807 -0.5 0 0 -1 0
-0.051762342 0.5 -0.030431271 0 1 0 0
-0.5 0.087245613 0.075781226 -1 0 0 0
-0.5 0.0039925575 0.39305004 -1 0 0 0
0.34224492 -0.080725968 0.5 0 0 1 0
-0.25781161 0.040026814 -0.5 0 0 -1 0
0.5 0.48645413 -0.17889446 1 0 0 0
0.46045506 -0.10108519 -0.5 0 0 -1 0
-0.21324772 0.5 0.054602504 0 1 0 0
-0.078598559 0.5 0.0055927038 0 1 0 0
0.45021406 -0.0018473268 -0.5 0 0 -1 0
0.5 -0.037754655 -0.080626994 1 0 0 0
0.064847469 -0.5 -0.10880554 0 -1 0 0
-0.35616779 0.5 0.11198303 0 0.99999994 0 0
-0.31342435 -0.27671236 -0.5 0 0 -1 0
-0.30488449 0.5 0.19392866 0 1 0 0
-0.16038802 0.42448002 0.5 0 0 1 0
-0.041204572 -0.5 0.10438728 0 -1 0 0
-0.25835067 0.42960244 0.5 0 0 1 0
0.5 0.32035252 -0.014784932 1 0 0 0
-0.0009675622 -0.5 0.35051769 0 -1 0 0
0.270969 0.065220684 0.5 0 0 1 0
0.13504189 0.35051599 -0.5 0 0 -0.99999994 0
-0.029590905 0.33406574 -0.5 0 0 -1 0
-0.23248734 0.35386318 0.5 0 0 1 0
-0.5 -0.10303408 0.29682148 -1 0 0 0
0.10082483 -0.43653542 0.5 0 0 1 0
0.46920985 -0.5 0.45109653 0 -1 0 0
0.40345669 -0.5 0.36072683 0 -0.99999994 0 0
-0.44778484 -0.080380201 -0.5 0 0 -1 0
0.24749222 -0.35014591 -0.5 0 0 -1 0
-0.49306878 -0.5 -0.0071702003 0 -1 0 0
-0.5 0.30385286 0.34081173 -1 0 0 0
0.12754577 -0.10445189 0.5 0 0 1 0
0.27261597 -0.18150717 0.5 0 0 1 0
0.45543355 0.5 0.44216776 0 1 0 0
-0.34624141 -0.27967221 0.5 0 0 1 0
-0.36897326 -0.33333403 0.5 0 0 1 0
-0.5 -0.44721836 -0.44960117 -1 0 0 0
-0.5 0.27614355 -0.48525757 -1 0 0 0
0.439533 -0.5 0.44693363 0 -1 0 0
-0.076760784 0.30887532 0.5 0 0 1 0
-0.39455786 0.44823265 0.5 0 0 1 0
0.42045644 0.30015942 0.5 0 0 1 0
0.048888445 0.33207446 -0.5 0 0 -1 0
-0.39378661 0.5 -0.47809935 0 1 0 0
-0.5 0.33414596 0.17497283 -1 0 0 0
0.5 0.46099314 -0.1274831 1 0 0 0
-0.12747294 -0.5 -0.43783104 0 -1 0 0
0.14812765 0.20022321 0.5 0 0 1 0
0.5 -0.32689619 0.35719204 1 0 0 0
0.30938721 -0.5 -0.19745415 0 -1 0 0
0.5 -0.2800675 0.19303149 1 0 0 0
-0.48405614 -0.46859103 -0.5 0 0 -0.99999994 0
0.012368262 0.22527891 0.5 0 0 1 0
-0.5 -0.33531255 0.0033119917 -1 0 0 0
0.45453906 0.28153533 0.5 0 0 1 0
0.5 0.46884364 -0.17640728 1 0 0 0
0.3583895 0.5 0.099230051 0 1 0 0
0.17780763 0.5 -0.20652795 0 1 0 0
0.1126745 -0.39328817 -0.5 0 0 -1 0
0.5 -0.48716643 -0.0085389018 1 0 0 0
0.5 -0.018267095 0.41976666 1 0 0 0
-0.30345464 -0.5 -0.16198182 0 -1 0 0
0.0091457367 -0.28788114 0.5 0 0 1 0
-0.5 0.49762461 0.42543629 -1 0 0 0
-0.5 -0.14664581 -0.2133722 -1 0 0 0
0.5 -0.3295415 -0.43313476 1 0 0 0
-0.12866031 0.32137248 0.5 0 0 0.99999994 0
-0.5 -0.49680761 0.27789038 -1 0 0 0
0.029899657 -0.5 0.43267912 0 -1 0 0
-0.27070788 -0.31311107 -0.5 0 0 -1 0
0.5 0.035931289 0.46563718 1 0 0 0
-0.38151014 0.040505707 -0.5 0 0 -1 0
0.36070937 0.5 -0.2363838 0 1 0 0
0.016313553 -0.5 0.036558986 0 -0.99999994 0 0
0.41616833 0.45898393 -0.5 0 0 -1 0
-0.20202488 0.43190312 -0.5 0 0 -1 0
-0.34319818 -0.5 -0.1318838 0 -1 0 0
-0.16519427 -0.42024535 0.5 0 0 1 0
0.037633061 -0.29560107 -0.5 0 0 -0.99999994 0
-0.49474746 0.22062093 -0.5 0 0 -1 0
0.45901662 0.054554939 -0.5 0 0 -1 0
-0.31655568 0.5 0.35112071 0 1 0 0
-0.37641418 0.5 0.392712 0 1 0 0
0.5 0.051004291 -0.21969959 1 0 0 0
0.5 -0.16003042 0.37056941 1 0 0 0
0.32692397 -0.008140564 0.5 0 0 1 0
-0.075586796 0.5 0.38743034 0 1 0 0
-0.5 0.4747048 -0.33782721 -1 0 0 0
0.44913912 0.18901408 -0.5 0 0 -1 0
-0.29101822 -0.14322409 0.5 0 0 0.99999994 0
0.16493231 0.5 -0.019058466 0 1 0 0
0.5 -0.47081041 0.083088636 1 0 0 0
-0.42504573 -0.25637603 -0.5 0 0 -1 0
0.12637764 -0.5 0.33521974 0 -1 0 0
-0.022316337 -0.070587754 0.5 0 0 1 0
0.22268265 0.34764856 0.5 0 0 1 0
0.23982197 -0.5 -0.31193316 0 -1 0 0
0.20383668 -0.083216548 0.5 0 0 1 0
0.5 -0.4310618 0.13978884 1 0 0 0
0.17889047 -0.5 -0.12575436 0 -1 0 0
-0.5 0.45118988 -0.099577427 -1 0 0 0
0.12391384 -0.096762031 -0.5 0 0 -1 0
-0.5 -0.40135998 0.029785156 -1 0 0 0
0.073811769 0.48384261 0.5 0 0 1 0
-0.24756303 -0.5 0.20824891 0 -1 0 0
-0.38589054 -0.5 0.33768392 0 -1 0 0
0.10310233 -0.15969646 0.5 0 0 1 0
-0.45475525 -0.5 -0.071038604 0 -1 0 0
0.49183983 -0.34186149 -0.5 0 0 -1 0
-0.5 0.4869498 -0.15223128 -1 0 0 0
0.31317228 -0.5 -0.17020547 0 -1 0 0
-0.5 -0.19751567 0.15891016 -1 0 0 0
0.16932851 0.2311596 0.5 0 0 0.99999994 0
0.11351067 -0.22638911 0.5 0 0 1 0
-0.25940675 -0.5 0.15063572 0 -1 0 0
0.12319946 0.5 0.38664579 0 1 0 0
-0.5 0.053007603 -0.34288967 -1 0 0 0
0.18123853 -0.5 -0.13509524 0 -1 0 0
0.1032205 0.024250567 -0.5 0 0 -1 0
0.41884476 0.5 0.47601092 0 1 0 0
-0.2068862 0.5 0.13660765 0 1 0 0
-0.11515632 -0.5 -0.43220335 0 -1 0 0
-0.26327455 -0.40503114 -0.5 0 0 -0.99999994 0
-0.11773066 -0.33422285 -0.5 0 0 -1 0
-0.053914547 -0.5 0.49717718 0 -1 0 0
-0.079264641 0.17138141 0.5 0 0 1 0
0.5 0.1674996 -0.16692179 1 0 0 0
-0.0090678036 0.40256381 -0.5 0 0 -1 0
-0.066447861 -0.5 0.081483006 0 -1 0 0
0.5 -0.35919312 -0.35143936 1 0 0 0
-0.27994448 -0.5 -0.027099431 0 -0.99999994 0 0
-0.5 0.45749983 -0.15728405 -1 0 0 0
0.5 0.11774242 0.20056418 1 0 0 0
-0.46061495 -0.44459945 -0.5 0 0 -1 0
-0.5 -0.47327161 0.054948926 -1 0 0 0
0.5 0.24872035 -0.0083321631 1 0 0 0
0.31638765 0.5 -0.49882102 0 1 0 0
0.5 0.34621012 -0.39997923 0.99999994 0 0 0
-0.24617684 0.5 0.49434811 0 1 0 0
-0.46371025 0.4220264 0.5 0 0 0.99999994 0
0.15393829 -0.11954701 -0.5 0 0 -1 0
-0.44761074 -0.5 0.0061039925 0 -1 0 0
0.14964986 0.16815507 0.5 0 0 1 0
-0.19940296 0.36533535 -0.5 0 0 -1 0
0.33411753 0.5 4.9591064e-05 0 1 0 0
0.025128603 0.5 -0.0074056983 0 1 0 0
-0.30892575 0.5 0.1153169 0 0.99999994 0 0
-0.36308539 0.37604022 -0.5 0 0 -1 0
0.20527905 -0.5 0.018104136 0 -1 0 0
0.069206834 -0.5 0.48663914 0 -1 0 0
0.41172376 0.40725181 0.5 0 0 1 0
-0.10652694 -0.5 -0.39811534 0 -1 0 0
0.012897849 0.22522819 -0.5 0 0 -1 0
-0.5 -0.37530935 -0.16364461 -1 0 0 0
0.31017762 0.5 0.066564143 0 1 0 0
-0.49078572 -0.36442256 -0.5 0 0 -1 0
-0.15496764 -0.5 0.41383001 0 -1 0 0
0.5 0.30985278 0.34073246 1 0 0 0
-0.35782725 0.5 0.0029012561 0 1 0 0
0.5 -0.24357465 0.31178933 0.99999994 0 0 0
0.5 -0.389777 0.43424702 1 0 0 0
0.41098535 -0.49822044 -0.5 0 0 -1 0
-0.26566863 -0.092257857 0.5 0 0 0.99999994 0
-0.38728368 -0.076942414 0.5 0 0 1 0
0.33173686 0.5 -0.43123323 0 1 0 0
-0.0090033412 0.5 0.31908906 0 1 0 0
0.16371638 -0.5 -0.41935152 0 -1 0 0
0.20733356 0.15776455 -0.5 0 0 -0.99999994 0
-0.5 0.023079395 -0.3950721 -1 0 0 0
0.33739907 -0.5 -0.025632858 0 -1 0 0
-0.5 -0.28280753 0.025270224 -1 0 0 0
0.10753977 -0.5 0.26858592 0 -1 0 0
0.3866671 0.285869 -0.5 0 0 -1 0
-0.20438093 0.44917327 0.5 0 0 1 0
0.5 -0.026332617 -0.098345645 1 0 0 0
0.43013567 0.5 -0.22150582 0 1 0 0
0.089671969 -0.023833275 0.5 0 0 1 0
0.27295285 0.045679033 -0.5 0 0 -1 0
-0.34416294 0.5 0.34675127 0 1 0 0
0.16853756 0.38932693 -0.5 0 0 -0.99999994 0
-0.5 0.41181523 -0.29056966 -0.99999994 0 0 0
0.22923011 0.5 0.32975352 0 1 0 0
0.5 -0.12625244 0.22949523 1 0 0 0
-0.16452953 -0.5 -0.2480641 0 -1 0 0
-0.30560169 0.5 -0.32893893 0 1 0 0
-0.17197326 0.5 0.35450983 0 1 0 0
0.33921722 0.5 -0.038741112 0 1 0 0
0.15165317 0.1647186 -0.5 0 0 -1 0
-0.12774837 -0.067198932 0.5 0 0 1 0
-0.5 -0.47076523 0.14830303 -1 0 0 0
-0.3134622 0.35921144 -0.5 0 0 -1 0
-0.25973415 0.5 0.35174799 0 1 0 0
0.5 -0.20084608 0.26579404 1 0 0 0
-0.045522064 0.44577259 0.5 0 0 1 0
-0.22829354 0.070515215 0.5 0 0 1 0
-0.21641821 -0.5 0.29204643 0 -0.99999994 0 0
0.43725872 0.15790474 0.5 0 0 1 0
-0.5 -0.19378045 -0.47058928 -1 0 0 0
-0.15306193 -0.5 0.44809932 0 -1 0 0
-0.18293965 0.5 -0.48564273 0 1 0 0
-0.1055758 -0.5 -0.41261524 0 -1 0 0
-0.33396545 0.5 -0.45858127 0 0.99999994 0 0
0.40628436 -0.2429851 -0.5 0 0 -1 0
0.48913455 0.5 -0.20282072 0 1 0 0
0.5 -0.31238812 -0.21977079 1 0 0 0
-0.06194216 0.5 0.061647058 0 1 0 0
0.47882748 -0.5 0.34317118 0 -1 0 0
0.38375425 0.5 0.25975037 0 0.99999994 0 0
-0.5 -0.13870686 -0.023450851 -1 0 0 0
0.5 0.35918629 0.37898737 1 0 0 0
0.08763665 0.091255873 -0.5 0 0 -1 0
0.5 0.22938156 -0.054751456 1 0 0 0
0.013265133 -0.07219696 -0.5 0 0 -1 0
0.15858376 -0.5 0.26739299 0 -1 0 0
-0.36350584 0.44261777 -0.5 0 0 -1 0
-0.42001516 -0.5 -0.19508296 0 -1 0 0
-0.04340522 0.5 -0.077078968 0 1 0 0
-0.5 0.22420979 -0.018095374 -1 0 0 0
-0.5 0.0012311339 -0.19527569 -1 0 0 0
-0.48684511 0.5 0.40590584 0 0.99999994 0 0
0.15351357 0.0022402406 -0.5 0 0 -1 0
0.45942095 0.085135639 -0.5 0 0 -1 0
0.4216426 -0.5 0.28016889 0 -1 0 0
0.45224983 -0.5 0.43336791 0 -1 0 0
0.24658942 0.030387104 -0.5 0 0 -0.99999994 0
0.45488983 0.5 -0.436759 0 1 0 0
-0.3925662 0.13950378 0.5 0 0 1 0
0.036365949 0.080643952 0.5 0 0 1 0
0.46072859 -0.5 -0.17634225 0 -1 0 0
-0.17732951 0.5 -0.23433349 0 1 0 0
-0.4885425 0.066461682 0.5 0 0 1 0
-0.11760831 -0.26711196 -0.5 0 0 -1 0
-0.042902231 0.5 -0.39966342 0 1 0 0
0.05008471 -0.047331631 0.5 0 0 0.99999994 0
0.5 -0.084089875 0.47569966 0.99999994 0 0 0
-0.21859235 0.5 -0.11887825 0 1 0 0
-0.039939076 -0.5 -0.2559166 0 -1 0 0
0.45241153 0.5 -0.32353926 0 1 0 0
-0.44135585 -0.5 0.48726448 0 -0.99999994 0 0
0.33345348 -0.5 -0.27283633 0 -1 0 0
0.5 0.22966331 -0.31903106 0.99999994 0 0 0
0.15315509 -0.0047390461 0.5 0 0 1 0
-0.15059102 -0.5 0.016400814 0 -1 0 0
-0.5 -0.28961399 0.07840246 -1 0 0 0
-0.5 -0.31109899 0.45193255 -1 0 0 0
-0.3190977 -0.075293988 0.5 0 0 1 0
-0.34426451 -0.053408504 0.5 0 0 1 0
-0.5 -0.06965518 -0.093953073 -1 0 0 0
-0.25321811 0.5 -0.16298926 0 1 0 0
0.17761552 0.45849133 0.5 0 0 1 0
-0.5 0.30167979 -0.13362736 -1 0 0 0
0.27151197 -0.053083539 -0.5 0 0 -1 0
-0.37603721 -0.5 -0.057219118 0 -1 0 0
0.5 0.092953086 -0.14405799 1 0 0 0
-0.40451831 -0.5 0.26093709 0 -1 0 0
-0.5 0.47555625 0.35064864 -1 0 0 0
-0.25472593 -0.17909962 0.5 0 0 1 0
-0.039633572 0.12158358 -0.5 0 0 -1 0
-0.5 0.083058864 0.44684616 -1 0 0 0
-0.033226162 0.30774236 0.5 0 0 1 0
0.5 0.093957335 -0.26490146 1 0 0 0
0.04776895 0.14731574 -0.5 0 0 -1 0
-0.43169925 -0.5 0.43058234 0 -1 0 0
-0.044655114 0.5 -0.39169115 0 1 0 0
-0.11510187 -0.5 0.40222603 0 -1 0 0
0.5 -0.22434682 -0.057462692 0.99999994 0 0 0
-0.5 -0.38154292 -0.40818596 -1 0 0 0
-0.5 -0.2789824 -0.27859098 -1 0 0 0
-0.13138661 0.2145828 -0.5 0 0 -1 0
-0.24741375 -0.28329802 0.5 0 0 1 0
-0.5 -0.0079507232 -0.28547674 -1 0 0 0
0.2333585 -0.16258526 0.5 0 0 1 0
0.21632087 -0.5 -0.29519528 0 -1 0 0
0.40379936 -0.041522145 0.5 0 0 1 0
-0.33791679 0.5 0.36721504 0 1 0 0
0.38239974 0.5 -0.46103746 0 1 0 0
-0.47677875 0.22012752 -0.5 0 0 -1 0
0.23892492 0.5 0.38906568 0 0.99999994 0 0
0.14148378 -0.056542039 -0.5 0 0 -1 0
-0.44159046 0.5 -0.18902153 0 1 0 0
-0.47315884 0.38032779 -0.5 0 0 -1 0
0.011711121 0.5 -0.32059067 0 0.99999994 0 0
-0.23045442 -0.24722695 0.5 0 0 1 0
0.16413593 0.36799628 -0.5 0 0 -1 0
-0.40820527 -0.29439062 -0.5 0 0 -1 0
0.5 -0.047030151 0.070985138 1 0 0 0
-0.5 0.42558512 0.26542124 -0.99999994 0 0 0
0.5 -0.45455578 -0.37886268 0.99999994 0 0 0
0.5 -0.18824148 -0.46237722 0.99999994 0 0 0
-0.15149245 0.13332134 -0.5 0 0 -1 0
0.5 0.45752442 -0.42952168 1 0 0 0
0.4432444 -0.5 0.11673349 0 -1 0 0
-0.24602044 -0.5 0.13477975 0 -1 0 0
0.19510326 0.5 -0.47080585 0 1 0 0
-0.5 -0.27783453 0.34333396 -1 0 0 0
0.40436855 -0.15218377 0.5 0 0 1 0
0.28170186 -0.2511434 -0.5 0 0 -1 0
-0.21593046 -0.32661325 -0.5 0 0 -1 0
0.5 0.067139924 -0.012402773 1 0 0 0
-0.5 -0.46334296 0.10903412 -1 0 0 0
-0.14734805 0.2985273 0.5 0 0 1 0
0.015399337 0.41340339 0.5 0 0 1 0
0.46128005 -0.3406688 0.5 0 0 0.99999994 0
-0.5 -0.20682716 -0.15429324 -1 0 0 0
0.49228388 -0.5 -0.2126959 0 -1 0 0
-0.27752417 -0.34844953 0.5 0 0 1 0
0.12417156 -0.095646381 0.5 0 0 1 0
-0.2257905 -0.5 0.13872135 0 -1 0 0
-0.36855245 -0.26094157 0.5 0 0 1 0
-0.5 -0.24829584 -0.36706424 -1 0 0 0
0.23732725 -0.5 0.41850683 0 -1 0 0
0.23995584 -0.5 0.098242491 0 -1 0 0
0.27902496 0.14649099 0.5 0 0 1 0
0.30371976 0.38243484 -0.5 0 0 -1 0
-0.14149264 -0.066823393 0.5 0 0 1 0
0.16176206 0.26512843 -0.5 0 0 -1 0
0.42547715 0.37440062 -0.5 0 0 -1 0
-0.48874229 -0.5 -0.29180992 0 -1 0 0
0.24404991 -0.25384569 0.5 0 0 1 0
-0.5 -0.43955505 0.33031237 -1 0 0 0
0.082659915 0.0025236309 0.5 0 0 1 0
0.5 -0.34696913 0.46869439 1 0 0 0
-0.44580501 0.35501868 0.5 0 0 1 0
0.02175504 0.5 -0.22866958 0 1 0 0
-0.5 0.16539502 -0.30272114 -1 0 0 0
0.25856107 0.5 -0.021313757 0 1 0 0
-0.5 -0.22558272 -0.13156575 -1 0 0 0
0.39887398 -0.010167718 0.5 0 0 1 0
0.21251667 -0.2320224 0.5 0 0 1 0
-0.5 -0.29516405 -0.47232077 -1 0 0 0
0.5 -0.43797836 0.24742296 1 0 0 0
0.069064617 0.23084193 -0.5 0 0 -0.99999994 0
-0.065794945 0.5 -0.34677333 0 1 0 0
-0.16951418 0.024799883 -0.5 0 0 -1 0
0.4595212 0.5 0.29634458 0 1 0 0
0.046328187 -0.5 -0.36183614 0 -0.99999994 0 0
0.40852594 -0.39201027 0.5 0 0 0.99999994 0
-0.3304221 -0.5 -0.40398538 0 -1 0 0
-0.13916503 0.5 -0.38580671 0 0.99999994 0 0
-0.21004438 0.5 -0.46244109 0 1 0 0
-0.5 0.11068189 0.15923345 -1 0 0 0
-0.35219204 -0.5 -0.29167885 0 -1 0 0
0.5 -0.36364603 0.4581641 1 0 0 0
0.43869454 0.5 -0.3675667 0 1 0 0
-0.04027915 0.5 -0.028157234 0 1 0 0
0.20928332 0.5 -0.021316677 0 1 0 0
0.5 0.11318672 0.4226743 1 0 0 0
0.5 0.42279518 -0.15881479 1 0 0 0
-0.5 0.058495224 -0.36234552 -1 0 0 0
-0.28220069 -0.052983165 -0.5 0 0 -0.99999994 0
0.15812278 -0.4303956 0.5 0 0 1 0
-0.5 -0.2459048 -0.46315497 -0.99999994 0 0 0
0.47848713 -0.16153151 -0.5 0 0 -1 0
0.14134336 0.5 0.44194275 0 1 0 0
0.5 -0.28539234 -0.37478232 1 0 0 0
-0.35034561 0.25821513 -0.5 0 0 -1 0
0.16789953 0.5 -0.012037843 0 1 0 0
0.23226559 0.5 0.31156194 0 0.99999994 0 0
-0.5 -0.042813957 0.11718475 -1 0 0 0
-0.5 0.3258391 -0.2035591 -1 0 0 0
-0.5 -0.4002344 0.14973521 -1 0 0 0
0.5 0.23611051 0.045838594 1 0 0 0
-0.32850388 0.39295745 0.5 0 0 1 0
-0.1844708 0.5 -0.44589984 0 1 0 0
-0.5 -0.32786262 0.073164284 -1 0 0 0
-0.5 0.034730673 -0.33432293 -1 0 0 0
-0.0031226277 0.5 0.48178917 0 1 0 0
-0.5 0.34558654 -0.11815912 -1 0 0 0
0.355955 -0.5 -0.23862779 0 -1 0 0
-0.5 -0.27676326 0.33676106 -1 0 0 0
0.21277744 -0.5 -0.13146794 0 -1 0 0
0.38650358 0.13439351 -0.5 0 0 -1 0
0.22380912 0.5 0.44042343 0 1 0 0
0.20088282 0.5 -0.37323293 0 1 0 0
0.088701963 0.015850246 0.5 0 0 0.99999994 0
0.5 0.10031158 -0.46294892 1 0 0 0
0.5 -0.10870808 -0.0040394664 1 0 0 0
-0.46783191 -0.5 0.14896941 0 -1 0 0
0.5 0.42126793 0.17113906 0.99999994 0 0 0
0.093283892 0.31808704 0.5 0 0 1 0
-0.28983605 0.32875949 0.5 0 0 1 0
0.5 0.12967294 0.043201208 1 0 0 0
0.5 0.31392348 0.34430215 1 0 0 0
0.31879181 -0.5 0.47091746 0 -1 0 0
0.030513763 0.15567482 -0.5 0 0 -1 0
-0.49563634 -0.15957105 0.5 0 0 0.99999994 0
-0.11763501 0.091403425 -0.5 0 0 -1 0
0.5 -0.27117562 0.32142985 1 0 0 0
-0.20639104 0.31798589 0.5 0 0 1 0
0.20778298 -0.36174989 -0.5 0 0 -0.99999994 0
-0.5 -0.299968 0.22084248 -1 0 0 0
-0.26660472 0.17486942 0.5 0 0 1 0
0.29439443 0.099999666 -0.5 0 0 -1 0
0.5 -0.13546824 -0.45024377 1 0 0 0
0.11856925 -0.5 -0.20664588 0 -1 0 0
0.21208584 0.47294793 -0.5 0 0 -1 0
0.44338658 -0.5 0.49399433 0 -1 0 0
-0.41077697 -0.5 0.071278453 0 -1 0 0
0.21573004 -0.38655904 -0.5 0 0 -1 0
0.5 -0.033383399 0.29654509 1 0 0 0
-0.29665548 -0.32138246 -0.5 0 0 -1 0
0.49798441 -0.5 -0.034745216 0 -1 0 0
-0.30729628 -0.27177882 -0.5 0 0 -1 0
-0.062918782 0.5 -0.26883405 0 1 0 0
-0.21864724 0.5 -0.19574231 0 1 0 0
-0.11902449 0.44444403 -0.5 0 0 -1 0
0.5 -0.26937902 0.0025149584 1 0 0 0
-0.5 -0.11760324 0.17523262 -1 0 0 0
-0.47275451 -0.5 0.41487819 0 -1 0 0
-0.1364401 0.14850989 -0.5 0 0 -1 0
0.49385718 -0.011720985 -0.5 0 0 -1 0
-0.15481785 0.5 -0.45625028 0 0.99999994 0 0
-0.076171398 0.5 0.21254474 0 1 0 0
0.5 -0.40860754 0.13169563 1 0 0 0
-0.48610181 0.087303936 0.5 0 0 1 0
-0.48875582 0.5 -0.48091233 0 1 0 0
0.5 -0.022606432 -0.46859181 1 0 0 0
0.5 -0.26390016 0.094916642 0.99999994 0 0 0
0.16666371 0.22985086 0.5 0 0 1 0
-0.38275045 0.5 -0.11331797 0 1 0 0
-0.5 -0.028313279 0.38971752 -1 0 0 0
-0.5 -0.3599267 -0.21600285 -0.99999994 0 0 0
0.095419407 0.5 0.28582805 0 1 0 0
0.30374619 -0.5 0.10287935 0 -1 0 0
0.32424119 0.20800665 0.5 0 0 1 0
-0.30934596 -0.41496962 -0.5 0 0 -1 0
-0.42241931 0.5 -0.39849955 0 1 0 0
-0.5 0.39424759 -0.013423085 -1 0 0 0
0.34607509 -0.026901126 -0.5 0 0 -1 0
0.34342712 -0.5 0.32937628 0 -1 0 0
-0.44618416 0.5 0.017062485 0 1 0 0
0.30186546 0.5 0.27450037 0 1 0 0
-0.28799504 -0.33272088 0.5 0 0 1 0
-0.16514939 -0.2483142 -0.5 0 0 -1 0
-0.072792411 0.5 0.42204583 0 1 0 0
0.5 0.45764989 -0.32053405 1 0 0 0
-0.49556911 -0.03003034 0.5 0 0 1 0
0.5 0.37950921 0.29062277 1 0 0 0
-0.5 -0.4430595 0.036863029 -1 0 0 0
-0.13578653 -0.16380149 0.5 0 0 1 0
-0.40614879 -0.5 -0.14311051 0 -1 0 0
0.5 -0.071320295 -0.25175542 1 0 0 0
-0.22587976 -0.5 -0.3613354 0 -1 0 0
-0.23673671 -0.5 0.16610616 0 -1 0 0
-0.38256985 0.5 -0.14875185 0 0.99999994 0 0
0.27516899 -0.28571066 -0.5 0 0 -1 0
0.5 -0.47319165 -0.12045735 1 0 0 0
0.022304893 -0.5 -0.12144002 0 -1 0 0
0.19450492 0.18453681 -0.5 0 0 -1 0
0.24141032 0.14277375 -0.5 0 0 -1 0
-0.13339704 0.5 0.0042746663 0 0.99999994 0 0
0.10501337 -0.5 0.26031622 0 -0.99999994 0 0
0.27973074 0.39107686 0.5 0 0 1 0
0.5 -0.36520553 -0.33388674 0.99999994 0 0 0
-0.33910728 -0.5 -0.37594634 0 -1 0 0
-0.5 0.16004953 0.38776496 -1 0 0 0
0.067593224 -0.065597773 0.5 0 0 0.99999994 0
-0.16486228 -0.5 0.15985417 0 -1 0 0
0.067456901 0.5 0.25162441 0 1 0 0
0.46853179 -0.45187002 -0.5 0 0 -1 0
-0.45195329 0.5 -0.0206635 0 1 0 0
-0.19568405 0.5 -0.1381079 0 1 0 0
0.5 -0.25554255 0.17280036 1 0 0 0
0.30097646 -0.5 0.34431219 0 -1 0 0
-0.44304013 0.17589819 -0.5 0 0 -1 0
0.5 0.1169259 -0.20909446 0.99999994 0 0 0
0.30402023 -0.5 -0.33174223 0 -1 0 0
-0.034156799 0.25306606 0.5 0 0 1 0
0.5 0.38357955 -0.29531056 1 0 0 0
-0.5 0.068621635 -0.4451676 -1 0 0 0
-0.20854175 0.5 -0.038833916 0 0.99999994 0 0
-0.33599442 0.5 0.058021814 0 1 0 0
0.032353461 0.5 -0.30089647 0 1 0 0
-0.5 -0.34626186 0.46893254 -1 0 0 0
0.5 -0.46734762 -0.2101227 1 0 0 0
-0.34430116 0.5 -0.33013189 0 1 0 0
0.32953978 -0.42528605 0.5 0 0 1 0
0.5 -0.27372539 0.49498862 1 0 0 0
-0.31849283 0.091441393 0.5 0 0 1 0
0.34957674 -0.5 0.17105845 0 -1 0 0
0.17924792 0.5 -0.040476024 0 1 0 0
-0.20314741 0.26092952 0.5 0 0 1 0
-0.5 -0.23675442 0.024796963 -1 0 0 0
-0.075263694 -0.5 0.28686193 0 -1 0 0
0.31719494 0.5 -0.27410656 0 1 0 0
0.065721452 -0.41995481 0.5 0 0 1 0
-0.38891399 0.5 -0.40468162 0 1 0 0
-0.5 0.10834843 0.3794798 -1 0 0 0
-0.5 0.34948871 0.29395047 -1 0 0 0
0.065280676 0.5 -0.36764842 0 1 0 0
0.5 0.11580867 0.01206661 1 0 0 0
0.22653449 -0.5 0.15809575 0 -1 0 0
0.036758184 -0.11413991 -0.5 0 0 -0.99999994 0
-0.5 -0.43750086 0.010683775 -1 0 0 0
0.12568524 -0.45724502 -0.5 0 0 -1 0
0.42975914 0.5 0.12142611 0 1 0 0
0.020796627 0.49050924 0.5 0 0 1 0
0.19293261 -0.5 -0.38101679 0 -1 0 0
-0.29926282 0.5 -0.28989077 0 0.99999994 0 0
0.5 0.10578746 0.43909645 1 0 0 0
-0.14938843 -0.2244556 -0.5 0 0 -1 0
0.25117576 0.48908481 -0.5 0 0 -1 0
-0.25637174 -0.27318877 -0.5 0 0 -1 0
-0.2207922 -0.14538807 -0.5 0 0 -1 0
-0.26471883 -0.12968123 0.5 0 0 0.99999994 0
-0.30922586 -0.15913796 0.5 0 0 1 0
-0.097887158 0.17911696 0.5 0 0 1 0
-0.48608723 0.5 -0.33197188 0 1 0 0
-0.5 0.24482661 0.45383686 -1 0 0 0
0.079476595 -0.5 -0.23719326 0 -1 0 0
-0.5 -0.25915593 0.392369 -1 0 0 0
-0.5 -0.25786442 0.22447443 -0.99999994 0 0 0
-0.06511569 -0.5 -0.39923796 0 -1 0 0
-0.31098938 -0.5 0.20147812 0 -1 0 0
0.5 0.24846053 0.33746365 1 0 0 0
-0.21027875 0.15515912 -0.5 0 0 -1 0
0.48273188 0.5 -0.10929424 0 1 0 0
0.5 -0.17162979 -0.25407487 1 0 0 0
-0.22045755 0.23000383 -0.5 0 0 -1 0
-0.16404206 0.5 0.054591149 0 1 0 0
-0.5 0.41649896 -0.014847636 -1 0 0 0
-0.049578458 -0.48605126 -0.5 0 0 -1 0
0.5 0.44430768 0.42318386 1 0 0 0
-0.5 0.26806939 -0.20998788 -1 0 0 0
0.5 0.4342463 0.31204897 0.99999994 0 0 0
-0.42563659 0.5 -0.32549602 0 1 0 0
-0.5 -0.11399508 -0.2581135 -1 0 0 0
-0.28921539 -0.1570732 -0.5 0 0 -1 0
-0.13828251 -0.5 -0.11400947 0 -0.99999994 0 0
-0.19469506 0.23961514 -0.5 0 0 -1 0
0.5 0.045297146 0.38549143 1 0 0 0
0.088694513 0.5 0.3118189 0 1 0 0
0.5 -0.17276484 -0.33118671 1 0 0 0
-0.31935 0.31575388 -0.5 0 0 -1 0
-0.15312022 0.49193686 -0.5 0 0 -1 0
-0.28132606 -0.28449437 -0.5 0 0 -1 0
0.087503076 0.5 0.33621079 0 1 0 0
0.5 0.16197342 -0.050985157 1 0 0 0
0.5 0.27560532 -0.12599453 1 0 0 0
0.5 -0.057759404 0.044925183 1 0 0 0
0.5 -0.18791217 0.37426001 1 0 0 0
0.5 -0.34312576 0.21731085 1 0 0 0
-0.26330271 0.32866704 -0.5 0 0 -1 0
0.064925015 -0.5 0.45986646 0 -1 0 0
0.5 -0.25160593 -0.49208277 0.99999994 0 0 0
0.44658089 0.5 0.15593445 0 1 0 0
0.15882827 0.013823241 0.5 0 0 1 0
0.5 0.24383199 -0.17201883 1 0 0 0
-0.066425413 0.5 0.41181719 0 0.99999994 0 0
0.14210761 0.3145144 0.5 0 0 1 0
-0.33276379 -0.5 0.23886281 0 -1 0 0
-0.5 0.40881619 0.11744055 -1 0 0 0
0.5 0.20886242 0.059775099 1 0 0 0
0.5 -0.35112286 0.27520385 1 0 0 0
-0.17105091 0.5 -0.14737546 0 1 0 0
0.31306362 -0.5 -0.33948761 0 -1 0 0
0.13127425 0.5 -0.085992903 0 1 0 0
-0.34528959 -0.5 0.49880087 0 -1 0 0
-0.5 0.14186734 -0.0062805116 -1 0 0 0
0.5 0.48361138 0.039843738 1 0 0 0
-0.26985109 0.3869065 -0.5 0 0 -0.99999994 0
-0.17255199 0.5 0.081536353 0 0.99999994 0 0
0.3052997 0.38024718 0.5 0 0 1 0
-0.5 0.070047796 0.13706684 -1 0 0 0
-0.44813487 0.19740015 0.5 0 0 1 0
-0.047970742 0.5 0.24407703 0 1 0 0
0.39943919 0.5 -0.2669622 0 1 0 0
-0.026438773 0.5 0.35646433 0 1 0 0
-0.25504804 -0.5 0.43001875 0 -1 0 0
0.5 -0.15811872 0.23455453 1 0 0 0
-0.5 0.06866625 0.35779893 -1 0 0 0
-0.025432043 -0.5 0.12592369 0 -1 0 0
-0.5 0.35156077 0.46653086 -1 0 0 0
-0.36323768 -0.064204812 -0.5 0 0 -1 0
0.10241145 -0.5 0.33962384 0 -1 0 0
0.40089685 0.5 0.0565148 0 1 0 0
-0.5 -0.29038763 0.33532247 -1 0 0 0
-0.36745259 0.5 -0.22429305 0 1 0 0
-0.42284715 0.5 -0.20806193 0 1 0 0
0.14061718 -0.5 -0.0059876442 0 -1 0 0
0.5 -0.1210998 0.36925811 1 0 0 0
-0.49424335 0.5 -0.25187773 0 1 0 0
0.5 0.35906029 -0.41491616 1 0 0 0
-0.33538866 0.5 -0.1232394 0 1 0 0
-0.38209552 0.5 -0.12066805 0 1 0 0
-0.31237024 -0.39991742 -0.5 0 0 -1 0
0.47200727 -0.5 0.049858868 0 -0.99999994 0 0
0.25879103 -0.49883336 0.5 0 0 1 0
-0.14287609 0.31862211 -0.5 0 0 -1 0
0.13031244 0.0038452148 -0.5 0 0 -1 0
-0.018663824 -0.48277718 -0.5 0 0 -1 0
0.22144103 0.24083734 -0.5 0 0 -1 0
-0.15812233 0.5 -0.4311434 0 1 0 0
0.47624704 -0.5 0.49571773 0 -1 0 0
0.5 -0.02496326 -0.082042649 1 0 0 0
0.34450853 0.5 0.0079631209 0 1 0 0
-0.077774704 0.5 -0.33243561 0 1 0 0
0.086786032 0.12734491 0.5 0 0 1 0
0.17430317 0.29357004 0.5 0 0 1 0
-0.019470304 -0.31755829 -0.5 0 0 -0.99999994 0
-0.5 0.4249078 -0.35022819 -1 0 0 0
-0.5 -0.0045305789 -0.47694439 -1 0 0 0
-0.45561287 0.48566899 -0.5 0 0 -1 0
-0.5 0.14477432 -0.49109629 -1 0 0 0
0.5 -0.25000381 -0.19930685 1 0 0 0
0.34884614 0.5 -0.32836455 0 0.99999994 0 0
-0.5 0.33511853 -0.47341374 -1 0 0 0
-0.5 0.30567342 -0.43134969 -1 0 0 0
-0.3440311 -0.1305818 0.5 0 0 1 0
-0.33919245 0.5 -0.19257939 0 1 0 0
0.5 0.39590025 -0.2081849 1 0 0 0
-0.091907024 0.44541836 0.5 0 0 0.99999994 0
-0.19467539 -0.5 0.090415001 0 -0.99999994 0 0
-0.5 -0.13728976 -0.26465982 -1 0 0 0
-0.5 0.20123377 0.16252616 -1 0 0 0
0.5 0.27684921 0.42290255 1 0 0 0
-0.050356269 -0.5 -0.33807367 0 -1 0 0
-0.27056795 -0.5 -0.43551588 0 -1 0 0
0.5 0.090691268 -0.16071707 1 0 0 0
-0.12144613 -0.5 -0.14528167 0 -1 0 0
-0.41457278 0.5 -0.27543557 0 1 0 0
0.5 -0.20712134 0.34308368 1 0 0 0
-0.44889766 -0.37686032 -0.5 0 0 -1 0
0.15080379 -0.5 0.0060298145 0 -1 0 0
-0.5 -0.39264351 -0.091770858 -1 0 0 0
-0.31881329 0.29507285 -0.5 0 0 -1 0
-0.29684705 0.5 0.10876822 0 1 0 0
0.1383847 -0.5 -0.1685251 0 -1 0 0
-0.5 0.30276507 -0.37083936 -1 0 0 0
-0.33211151 0.20185304 0.5 0 0 1 0
-0.20961928 -0.070938468 0.5 0 0 1 0
0.5 -0.017949641 -0.19771451 0.99999994 0 0 0
0.5 0.27287275 0.37738603 0.99999994 0 0 0
0.22200972 0.5 0.18305105 0 1 0 0
-0.088354766 0.5 -0.021468341 0 1 0 0
0.5 -0.27566531 0.47951898 0.99999994 0 0 0
0.16544378 0.38644081 -0.5 0 0 -0.99999994 0
0.25320619 0.3633678 -0.5 0 0 -1 0
-0.30457282 -0.044565499 -0.5 0 0 -0.99999994 0
-0.31372732 -0.5 0.18474352 0 -1 0 0
0.23960537 -0.027204931 -0.5 0 0 -1 0
0.5 -0.26297563 -0.006588757 1 0 0 0
0.5 -0.348939 0.31471109 1 0 0 0
0.043986619 0.30785674 0.5 0 0 1 0
-0.36896029 -0.5 -0.11554968 0 -1 0 0
0.31029779 0.22030044 -0.5 0 0 -1 0
-0.4625355 -0.16560817 -0.5 0 0 -1 0
0.080166459 0.33415157 0.5 0 0 1 0
0.10826087 -0.5 -0.45942825 0 -1 0 0
-0.5 -0.41360515 -0.12515104 -0.99999994 0 0 0
-0.5 0.48241287 0.10428482 -1 0 0 0
0.010335863 -0.5 0.33332282 0 -0.99999994 0 0
0.14861438 0.22176054 0.5 0 0 1 0
-0.5 0.40615493 -0.44116104 -1 0 0 0
-0.40093857 0.5 -0.49166477 0 0.99999994 0 0
-0.0091736913 0.15198177 0.5 0 0 0.99999994 0
0.5 0.025966257 -0.059111498 1 0 0 0
-0.5 0.047705889 -0.24013519 -1 0 0 0
0.5 0.082905412 0.37573135 1 0 0 0
-0.5 -0.089867711 0.00041115284 -1 0 0 0
0.039022923 0.22932297 0.5 0 0 1 0
-0.5 -0.42052805 0.024905086 -1 0 0 0
0.5 -0.068733424 0.16404289 1 0 0 0
0.14475793 0.5 -0.037681758 0 1 0 0
0.5 -0.073148668 0.14530095 0.99999994 0 0 0
0.055484474 -0.044297695 0.5 0 0 0.99999994 0
-0.5 0.31731495 0.070223153 -1 0 0 0
0.17092824 0.2095533 -0.5 0 0 -1 0
-0.14256284 -0.48498589 -0.5 0 0 -0.99999994 0
0.4766615 0.13904232 0.5 0 0 1 0
0.30982503 0.0095306039 0.5 0 0 1 0
-0.31884009 -0.25442564 -0.5 0 0 -1 0
0.066834688 -0.5 0.14329088 0 -1 0 0
0.18074155 -0.13293189 -0.5 0 0 -1 0
-0.020263202 0.030552119 0.5 0 0 1 0
-0.5 0.022679508 0.30272037 -1 0 0 0
0.14901721 -0.46840972 0.5 0 0 1 0
0.14094436 -0.1485464 0.5 0 0 1 0
0.26598266 -0.049724281 0.5 0 0 1 0
0.066070735 -0.5 0.031439424 0 -1 0 0
-0.00053673983 0.40531296 0.5 0 0 1 0
-0.5 0.41251642 -0.075826377 -1 0 0 0
0.5 0.23410273 0.48466507 1 0 0 0
-0.43468171 0.30461252 0.5 0 0 1 0
-0.5 -0.42000121 0.39855891 -1 0 0 0
-0.033451676 -0.1266976 -0.5 0 0 -1 0
0.5 0.31500494 0.10340035 1 0 0 0
-0.49485368 -0.5 -0.0059174895 0 -1 0 0
-0.5 0.34230697 0.0046112537 -1 0 0 0
-0.12031519 0.13741779 -0.5 0 0 -1 0
-0.28256124 -0.0067162514 0.5 0 0 1 0
-0.15542114 -0.5 0.42412275 0 -1 0 0
-0.33547568 -0.33976734 0.5 0 0 1 0
-0.048210621 -0.27555722 0.5 0 0 1 0
0.5 -0.097495317 -0.20119095 0.99999994 0 0 0
-0.1348266 0.5 0.031016946 0 0.99999994 0 0
0.5 -0.1981113 -0.35423315 0.99999994 0 0 0
-0.5 0.39905232 0.22856629 -1 0 0 0
0.047426842 -0.5 0.041197807 0 -1 0 0
-0.42288613 -0.5 -0.44755304 0 -1 0 0
0.3200087 0.063827932 -0.5 0 0 -1 0
-0.1582194 0.19359952 -0.5 0 0 -1 0
-0.14144428 0.5 -0.16567358 0 1 0 0
-0.15042785 0.5 0.24102029 0 1 0 0
0.5 -0.13804364 0.18344367 1 0 0 0
0.36755008 -0.5 -0.25915444 0 -1 0 0
-0.19999778 0.5 0.36256725 0 1 0 0
0.5 -0.38469553 -0.46241152 1 0 0 0
-0.35989231 0.5 -0.29030514 0 1 0 0
-0.40677947 -0.257348 -0.5 0 0 -1 0
0.34071991 0.5 0.31656599 0 0.99999994 0 0
-0.5 0.30165428 0.29529101 -0.99999994 0 0 0
0.14162922 0.01965481 0.5 0 0 1 0
0.34112686 0.5 -0.19366723 0 1 0 0
0.5 -0.36837938 0.21528935 1 0 0 0
0.08788076 -0.058875978 0.5 0 0 1 0
-0.20200568 -0.27550584 -0.5 0 0 -1 0
0.49555397 0.5 -0.38642341 0 1 0 0
0.14151347 -0.5 0.31148016 0 -1 0 0
-0.23271126 -0.5 -0.17832822 0 -1 0 0
-0.14780521 -0.5 0.46023607 0 -0.99999994 0 0
0.14819121 -0.35069042 0.5 0 0 1 0
0.18977469 -0.26572526 -0.5 0 0 -1 0
0.13212693 0.34325886 -0.5 0 0 -1 0
0.28039604 -0.5 0.44807351 0 -0.99999994 0 0
-0.33600879 0.29974705 -0.5 0 0 -1 0
0.46160245 -0.5 0.073122203 0 -1 0 0
-0.5 -0.39734572 -0.42716709 -0.99999994 0 0 0
0.083650209 0.5 0.041086614 0 1 0 0
0.038368881 0.13445181 -0.5 0 0 -1 0
-0.11347979 0.5 0.25454259 0 0.99999994 0 0
0.32674545 -0.5 0.2711907 0 -0.99999994 0 0
0.15331429 -0.5 -0.24656463 0 -1 0 0
-0.36736536 -0.5 -0.31005496 0 -0.99999994 0 0
0.45206654 -0.5 0.38713992 0 -1 0 0
-0.28822947 -0.5 -0.27304739 0 -1 0 0
0.40017527 -0.5 -0.14795935 0 -1 0 0
-0.12917018 0.036790431 0.5 0 0 1 0
-0.5 0.24111748 -0.45479614 -1 0 0 0
-0.5 0.017581403 -0.0084882379 -1 0 0 0
-0.39801821 0.5 0.49194837 0 1 0 0
0.39507312 0.5 -0.17272162 0 0.99999994 0 0
-0.5 0.30719817 0.11294705 -1 0 0 0
-0.40502119 0.19107997 -0.5 0 0 -1 0
0.3082996 -0.40832442 0.5 0 0 1 0
0.5 0.2520836 -0.47869605 1 0 0 0
0.5 0.079449177 -0.11823201 1 0 0 0
0.0299595 -0.046791434 -0.5 0 0 -1 0
0.10386932 -0.26899326 0.5 0 0 1 0
-0.13310838 -0.49295771 -0.5 0 0 -1 0
-0.5 0.26851088 0.36904556 -1 0 0 0
0.086853623 0.25151491 -0.5 0 0 -1 0
0.5 0.25489998 0.26439846 1 0 0 0
0.14465302 -0.5 -0.069529057 0 -1 0 0
-0.19410664 0.34994882 -0.5 0 0 -1 0
0.36368474 0.19021514 0.5 0 0 1 0
-0.18376201 0.48838449 -0.5 0 0 -1 0
-0.20725778 0.5 0.38129118 0 1 0 0
0.11696714 0.13144833 0.5 0 0 1 0
-0.5 -0.31783199 -0.21338236 -1 0 0 0
0.02358681 0.5 -0.025670886 0 0.99999994 0 0
0.42983332 0.38434497 0.5 0 0 1 0
-0.5 -0.034520507 0.027605534 -1 0 0 0
0.5 -0.33240569 0.23837283 1 0 0 0
0.5 0.32054561 0.23061998 1 0 0 0
0.15193582 0.41459769 -0.5 0 0 -1 0
0.47175908 -0.5 0.28920919 0 -0.99999994 0 0
-0.20106536 0.30548924 -0.5 0 0 -1 0
-0.5 -0.27766511 -0.48850346 -1 0 0 0
0.5 0.27429605 -0.13221318 1 0 0 0
-0.16364473 0.5 0.37678856 0 1 0 0
0.5 -0.12402993 -0.19554153 1 0 0 0
-0.5 -0.47299016 -0.12592804 -1 0 0 0
0.026809335 -0.4158197 0.5 0 0 1 0
0.5 -0.17103809 -0.30873489 1 0 0 0
0.356857 0.5 -0.25357825 0 1 0 0
-0.14316785 0.22198334 -0.5 0 0 -1 0
-0.028915823 -0.5 0.33909619 0 -1 0 0
-0.35427707 0.5 0.33474809 0 1 0 0
-0.35296702 0.31705827 -0.5 0 0 -1 0
0.38856676 0.5 -0.13773867 0 1 0 0
0.093854249 -0.5 0.17238256 0 -1 0 0
0.22313434 -0.5 0.0272654 0 -1 0 0
0.40056053 -0.4697822 -0.5 0 0 -1 0
-0.5 0.033246756 -0.45576048 -1 0 0 0
0.5 -0.28544754 0.46791726 1 0 0 0
-0.23528019 -0.35394993 0.5 0 0 1 0
-0.083646119 -0.5 0.15775722 0 -0.99999994 0 0
-0.22597876 0.024955392 -0.5 0 0 -1 0
-0.23765442 -0.25783625 0.5 0 0 1 0
0.10416883 -0.23464209 0.5 0 0 0.99999994 0
-0.5 -0.13076109 -0.39448625 -0.99999994 0 0 0
-0.14008763 0.5 0.45295337 0 1 0 0
0.5 -0.37273651 0.10360998 1 0 0 0
-0.5 0.44281304 -0.30162656 -1 0 0 0
-0.46642035 -0.12701222 0.5 0 0 1 0
0.5 0.29733539 0.11285789 1 0 0 0
-0.13071501 -0.5 0.072810411 0 -1 0 0
0.5 -0.11117816 -0.18271673 1 0 0 0
-0.083061993 0.02338475 -0.5 0 0 -1 0
-0.22438115 -0.5 -0.17423207 0 -1 0 0
0.5 -0.01294291 -0.045009911 1 0 0 0
-0.28145838 -0.47124422 0.5 0 0 1 0
0.5 -0.38754067 -0.13777667 1 0 0 0
0.20645547 0.41196418 0.5 0 0 1 0
-0.18082407 0.5 0.10995814 0 0.99999994 0 0
0.43571734 0.39546263 -0.5 0 0 -1 0
0.18217897 -0.24972144 -0.5 0 0 -1 0
-0.5 -0.089649796 0.33441788 -1 0 0 0
-0.46185583 0.5 0.41088241 0 1 0 0
0.5 0.20497993 -0.19759592 1 0 0 0
-0.21057302 0.33863103 0.5 0 0 1 0
0.20207441 0.5 -0.13614339 0 1 0 0
-0.031422049 -0.5 -0.11013585 0 -1 0 0
0.4880482 -0.23149765 -0.5 0 0 -1 0
-0.35212964 -0.5 0.3670783 0 -1 0 0
-0.39809489 0.5 -0.21902514 0 0.99999994 0 0
0.12098652 -0.5 0.36389691 0 -0.99999994 0 0
0.45793605 -0.5 -0.46927917 0 -1 0 0
-0.023928165 0.5 -0.43904829 0 1 0 0
-0.12642908 0.10627484 0.5 0 0 1 0
0.018684331 -0.5 0.03959313 0 -1 0 0
0.49594215 0.0061872602 -0.5 0 0 -1 0
0.2515454 0.5 -0.14565971 0 1 0 0
0.5 0.21413958 -0.24223459 0.99999994 0 0 0
0.5 -0.44500184 -0.38636017 1 0 0 0
-0.3971754 -0.5 0.46298769 0 -1 0 0
0.32144463 -0.11773092 0.5 0 0 1 0
0.5 0.42614478 0.14129159 1 0 0 0
-0.09996134 -0.5 -0.049791515 0 -1 0 0
-0.21431631 0.013959885 -0.5 0 0 -1 0
0.28311217 -0.25403279 0.5 0 0 0.99999994 0
0.24000025 0.5 0.10195982 0 1 0 0
-0.5 0.19665831 0.067158937 -1 0 0 0
-0.5 0.1501298 0.11817235 -1 0 0 0
0.47531596 -0.5 -0.34084815 0 -1 0 0
0.10076916 -0.37247527 0.5 0 0 1 0
0.5 -0.36832994 0.2196328 1 0 0 0
-0.5 0.46955222 0.26619518 -1 0 0 0
0.5 0.026340425 0.146366 1 0 0 0
0.5 0.31524879 0.20142156 1 0 0 0
-0.5 -0.20610926 -0.1369195 -1 0 0 0
0.13765317 -0.30683976 -0.5 0 0 -1 0
-0.20826155 0.25203186 -0.5 0 0 -1 0
-0.14197567 0.18500668 -0.5 0 0 -1 0
-0.21365285 0.33952367 0.5 0 0 1 0
0.44580132 -0.32704985 -0.5 0 0 -1 0
0.5 -0.14706877 0.14036694 0.99999994 0 0 0
0.5 -0.46616182 -0.42503327 0.99999994 0 0 0
0.5 -0.15518883 0.33588117 1 0 0 0
-0.22330585 0.5 0.1015254 0 1 0 0
0.23944852 -0.11219299 0.5 0 0 1 0
0.5 -0.19567525 -0.40984464 0.99999994 0 0 0
0.14335358 -0.12234393 -0.5 0 0 -0.99999994 0
-0.48967022 -0.5 0.11241972 0 -0.99999994 0 0
-0.5 -0.1627003 0.16700935 -1 0 0 0
0.24583618 0.10094869 -0.5 0 0 -0.99999994 0
0.29276735 -0.21565878 0.5 0 0 1 0
-0.4436692 0.2514987 0.5 0 0 1 0
0.41259694 -0.43134743 -0.5 0 0 -1 0
0.5 0.43400556 0.26544225 0.99999994 0 0 0
-0.5 0.37122869 -0.11198139 -1 0 0 0
-0.36352426 0.5 -0.24765366 0 1 0 0
0.5 0.49935895 -0.27469486 1 0 0 0
-0.057080388 -0.23271996 -0.5 0 0 -1 0
-0.5 0.37947077 0.35528678 -1 0 0 0
0.29235113 -0.4548035 0.5 0 0 1 0
-0.23660716 -0.5 0.25736177 0 -1 0 0
0.5 0.34204048 -0.48361146 1 0 0 0
0.49695176 0.5 0.092574775 0 1 0 0
0.34267187 -0.5 0.30444771 0 -1 0 0
0.098765075 -0.056080341 0.5 0 0 0.99999994 0
-0.41261196 -0.23066425 -0.5 0 0 -1 0
0.5 -0.016481131 0.01398325 1 0 0 0
-0.47693288 -0.5 0.18917209 0 -1 0 0
-0.5 0.1050961 -0.22388855 -1 0 0 0
-0.5 -0.49902564 0.25123465 -0.99999994 0 0 0
0.21408403 -0.5 0.38673764 0 -1 0 0
-0.5 -0.22684413 0.2963711 -1 0 0 0
0.29794639 -0.5 -0.41490358 0 -1 0 0
0.5 -0.038541555 -0.30685878 1 0 0 0
0.12189895 0.24478728 -0.5 0 0 -1 0
0.35756302 0.43796068 -0.5 0 0 -1 0
0.41717824 0.5 -0.47305349 0 1 0 0
-0.00032588094 0.087369144 0.5 0 0 1 0
-0.5 0.093731403 0.06256783 -0.99999994 0 0 0
-0.5 0.061756492 0.49639857 -1 0 0 0
0.46991858 0.025941819 0.5 0 0 1 0
-0.5 0.30331874 0.31844968 -1 0 0 0
-0.13508141 -0.31367666 0.5 0 0 1 0
0.13297415 -0.23086429 -0.5 0 0 -0.99999994 0
-0.5 0.16355628 0.44621921 -1 0 0 0
0.48073685 -0.065743625 -0.5 0 0 -1 0
0.34081548 0.5 0.10934323 0 0.99999994 0 0
0.080937117 -0.5 0.37597686 0 -1 0 0
-0.32500219 0.31156656 -0.5 0 0 -0.99999994 0
-0.083076507 -0.26661262 0.5 0 0 1 0
0.073415637 -0.5 -0.10303199 0 -1 0 0
-0.5 -0.47948426 -0.19935024 -1 0 0 0
-0.45515898 0.5 -0.14293575 0 0.99999994 0 0
0.5 0.44021219 -0.41327363 1 0 0 0
0.29684693 -0.10734195 -0.5 0 0 -0.99999994 0
