# .PCD v0.7 - Point Cloud Data file format
VERSION 0.7
FIELDS x y z normal_x normal_y normal_z curvature
SIZE 4 4 4 4 4 4 4
TYPE F F F F F F F
COUNT 1 1 1 1 1 1 1
WIDTH 1130
HEIGHT 1
VIEWPOINT 0 0 0 1 0 0 0
POINTS 1130
DATA ascii
-0.74502486 0.093056008 -0.1928325 0 0 0 0
0.17567682 0.49047735 -0.79382741 0 0 0 0
-0.76428038 0.30444703 -0.43925524 0 0 0 0
-1.0467433 -0.007441639 -0.35023794 0 0 0 0
0.75760514 0.062820405 -0.39216653 0 0 0 0
-1.0140351 0.3455613 -0.34535959 0 0 0 0
0.55448323 -0.13738914 -0.12674323 0 0 0 0
-0.18988112 0.90412015 -0.37570193 0 0 0 0
0.096508265 -0.3743926 -0.210026 0 0 0 0
0.093671024 0.90776134 0.19651634 0 0 0 0
-1.0659748 0.065469727 -0.41643786 0 0 0 0
-0.38615468 0.4452531 -0.72661114 0 0 0 0
-0.34439301 0.88440371 0.15559717 0 0 0 0
-0.70293576 0.19511992 0.61156869 0 0 0 0
0.015508205 -0.5058341 0.29761276 0 0 0 0
0.092350781 -0.90239608 0.67102128 0 0 0 0
0.61383885 0.74359316 -0.0063774716 0 0 0 0
0.030145913 0.45658022 -0.83719969 0 0 0 0
-0.81007606 0.14634039 -0.27314734 0 0 0 0
0.89804125 0.4082419 -0.28554255 0 0 0 0
0.7665 0.44122949 0.54206657 0 0 0 0
-0.77890468 0.31857258 0.41296336 0 0 0 0
-0.54447478 0.55825633 0.63210803 0 0 0 0
-0.3834818 0.47207364 0.74136347 0 0 0 0
0.79719484 0.57430148 0.066368937 0 0 0 0
0.076260984 0.8886953 -0.52263904 0 0 0 0
0.37971628 0.57861781 0.80816889 0 0 0 0
-0.053535756 -0.38756245 -0.20160162 0 0 0 0
0.2658647 0.44150978 0.76653641 0 0 0 0
0.35685381 0.080873661 -0.65990442 0 0 0 0
0.8154754 0.24008992 0.44878802 0 0 0 0
0.19703141 -0.75398052 0.37387231 0 0 0 0
0.83036327 0.27199683 0.48741817 0 0 0 0
-1.2809998 0.37319386 -0.40896785 0 0 0 0
-0.18079479 0.51789576 0.54024237 0 0 0 0
-0.16013092 0.9335866 0.048774257 0 0 0 0
0.26743111 0.61463791 0.83340615 0 0 0 0
0.60206151 0.28440109 -0.57771194 0 0 0 0
0.28084198 0.27382848 0.82288069 0 0 0 0
0.88997221 0.20882463 -0.39981723 0 0 0 0
-1.1398189 0.19767581 -0.50414753 0 0 0 0
0.24825695 -0.70222366 0.68814176 0 0 0 0
-0.81215906 0.18484597 0.17904566 0 0 0 0
0.48778045 0.37408677 -0.67039186 0 0 0 0
0.29235309 -0.2151891 -0.45153236 0 0 0 0
0.18165681 -0.58899152 0.36821121 0 0 0 0
0.25916755 0.329362 -0.76034677 0 0 0 0
0.26386547 0.32301989 0.82053846 0 0 0 0
0.0379299 0.85268199 -0.56683064 0 0 0 0
-1.2245452 0.15721904 -0.4736816 0 0 0 0
0.83850753 0.34720382 -0.1159895 0 0 0 0
0.32230014 -0.57475299 0.54285938 0 0 0 0
0.082703888 0.89677852 0.24961436 0 0 0 0
0.37803406 0.53700155 0.57119262 0 0 0 0
-0.83030641 0.34418449 0.085712299 0 0 0 0
0.10437771 -0.36162791 -0.2935192 0 0 0 0
-0.65905416 0.18241954 0.6305998 0 0 0 0
0.10103849 -0.42475164 0.15897723 0 0 0 0
0.42185116 0.88379848 -0.31917071 0 0 0 0
0.73894554 0.47255829 0.24772771 0 0 0 0
0.97650367 0.3620601 -0.28223273 0 0 0 0
0.048410147 0.59785211 0.52771753 0 0 0 0
0.83061308 -0.12158289 -0.32126275 0 0 0 0
-0.20640419 -0.18457963 0.55300462 0 0 0 0
0.31008124 -0.64295447 0.48139691 0 0 0 0
0.42821416 -0.17019458 0.070167735 0 0 0 0
0.51683807 0.42648676 0.61922276 0 0 0 0
-0.48639053 0.89721525 -0.089325503 0 0 0 0
0.22447769 -0.43547577 0.35404766 0 0 0 0
1.1159288 0.42973429 -0.50829393 0 0 0 0
-0.6978572 0.14268418 0.59227782 0 0 0 0
0.38322818 0.50176102 0.61267954 0 0 0 0
1.0980575 0.10877587 -0.42258537 0 0 0 0
0.62200379 0.025059022 0.59791243 0 0 0 0
0.61300349 0.74341863 -0.30771577 0 0 0 0
-0.17929524 0.90924639 0.14199002 0 0 0 0
0.31695873 0.74167943 0.70545501 0 0 0 0
-0.82736343 0.34794497 0.50450069 0 0 0 0
0.83405447 0.022151545 -0.36006105 0 0 0 0
0.84581113 0.3756544 -0.067875475 0 0 0 0
-1.2830664 0.054876138 -0.43542892 0 0 0 0
0.46323246 0.022377504 0.59683746 0 0 0 0
-0.26617971 0.31807193 0.82081199 0 0 0 0
-1.1727651 0.45905197 -0.52277219 0 0 0 0
-1.1335466 -0.0038532093 -0.37097827 0 0 0 0
0.055551302 0.44703797 0.67750412 0 0 0 0
-0.026460662 0.96942508 -0.14013582 0 0 0 0
0.83306462 0.2476422 -0.037378192 0 0 0 0
0.29465282 0.88405311 0.18472202 0 0 0 0
-0.40123594 0.79648596 -0.45753145 0 0 0 0
0.6681999 0.49960962 -0.48336473 0 0 0 0
0.35253701 -0.25545809 -0.26162088 0 0 0 0
-0.76230526 -0.09525153 -0.34868231 0 0 0 0
-0.14451638 0.92957205 -0.27036315 0 0 0 0
-0.81164855 0.027683049 -0.34551245 0 0 0 0
0.29055387 0.23818024 0.82419789 0 0 0 0
-0.45685443 0.80857015 -0.4253909 0 0 0 0
-0.56123221 0.75059777 0.14392439 0 0 0 0
1.0391083 0.23314618 -0.48884413 0 0 0 0
-0.76593971 0.30055004 0.38662016 0 0 0 0
1.109038 0.22957146 -0.49924916 0 0 0 0
-0.65250081 -0.06200286 0.1412421 0 0 0 0
-0.0091287494 -0.30613065 -0.47690594 0 0 0 0
0.82243901 -0.035970721 -0.21854942 0 0 0 0
-1.2212956 0.12595375 -0.41002691 0 0 0 0
0.03379437 -0.33116034 -0.41887102 0 0 0 0
0.33198172 0.49205545 0.64589399 0 0 0 0
0.71219671 -0.014173873 -0.084354624 0 0 0 0
-0.4222559 -0.13994406 -0.35176575 0 0 0 0
-0.67377388 -0.12620519 -0.21662717 0 0 0 0
-0.35787112 -0.24145982 -0.09647008 0 0 0 0
0.29685533 -0.22680631 0.36698192 0 0 0 0
0.35264522 -0.23426294 0.097895555 0 0 0 0
-0.092971846 0.92101854 0.14026523 0 0 0 0
0.47437543 0.77531403 0.25803187 0 0 0 0
0.26684904 0.82110608 0.28667182 0 0 0 0
-0.40656495 0.91433412 -0.1759804 0 0 0 0
0.85585588 0.11312585 -0.37587422 0 0 0 0
-0.88567418 0.27993912 -0.2485512 0 0 0 0
0.61782289 0.71604192 0.080930829 0 0 0 0
-0.025372416 0.69348711 -0.7183488 0 0 0 0
0.42751175 -0.13958079 0.52675027 0 0 0 0
-0.2573148 0.55585098 0.48177612 0 0 0 0
-0.13128276 0.41718709 0.80811173 0 0 0 0
-0.11703168 0.91227949 0.16406626 0 0 0 0
-0.29323646 0.65402877 0.38353378 0 0 0 0
1.3257226 0.14468089 -0.52278018 0 0 0 0
0.83263385 0.16142185 -0.31633368 0 0 0 0
0.080085576 0.92245811 -0.35673243 0 0 0 0
-0.83113599 0.44370833 -0.031084523 0 0 0 0
1.0589644 0.10503925 -0.40385562 0 0 0 0
-0.6686812 0.70922446 -0.23508078 0 0 0 0
-0.078931764 -0.24444903 0.80913973 0 0 0 0
0.0045419936 0.68799698 -0.73515964 0 0 0 0
-0.031246841 -0.58119506 0.33032277 0 0 0 0
-0.34576276 0.81400931 -0.46730256 0 0 0 0
0.53349054 -0.04998656 0.37590319 0 0 0 0
-0.26956308 0.87407202 0.24148676 0 0 0 0
0.93128645 0.39086729 -0.42727274 0 0 0 0
-0.24133344 -0.77058727 0.68019521 0 0 0 0
-1.1950834 0.49909374 -0.41424969 0 0 0 0
0.037224822 0.3225525 0.79817337 0 0 0 0
0.6965611 0.56086302 -0.438021 0 0 0 0
-1.291983 0.41117522 -0.46155211 0 0 0 0
0.49106979 0.51193386 0.41445071 0 0 0 0
-0.3694002 0.5886631 0.57848012 0 0 0 0
-0.29284236 0.64753324 0.82873756 0 0 0 0
-0.016028866 -0.26016244 -0.55116177 0 0 0 0
0.88071167 -0.017869225 -0.25014997 0 0 0 0
-0.096304759 0.6401307 -0.72645271 0 0 0 0
0.47002617 0.025802545 0.59670252 0 0 0 0
-0.14137185 -0.0082184896 -0.71675593 0 0 0 0
-0.53758395 -0.050172195 0.36068383 0 0 0 0
-1.2893497 0.14136763 -0.53185189 0 0 0 0
1.2058216 0.10200058 -0.46932179 0 0 0 0
0.14638495 0.55826068 -0.77226162 0 0 0 0
0.75936866 0.077682316 -0.062314544 0 0 0 0
0.26763958 0.92778826 -0.19493869 0 0 0 0
0.73184603 0.097450882 0.33586019 0 0 0 0
-0.17763391 0.080679104 0.69629967 0 0 0 0
-0.0055387691 -0.30437362 0.79112697 0 0 0 0
-0.20632434 -0.29497036 0.64451754 0 0 0 0
-0.88534427 -0.10115879 -0.39146167 0 0 0 0
0.14313968 0.92687625 -0.28608373 0 0 0 0
0.77863735 0.4985207 0.18460214 0 0 0 0
0.73707008 0.09950453 0.41967118 0 0 0 0
0.039111804 -0.44927049 0.19265179 0 0 0 0
0.2257688 -0.18182069 -0.55510068 0 0 0 0
-0.33032253 0.1305007 -0.68626648 0 0 0 0
-0.2494598 0.45083138 0.76292151 0 0 0 0
0.92011577 0.1342261 -0.41823512 0 0 0 0
0.30110809 -0.052034527 0.71953118 0 0 0 0
-0.052958459 0.92324841 -0.37244827 0 0 0 0
0.3109979 -0.67432517 0.46624982 0 0 0 0
0.99258173 0.28402495 -0.46476996 0 0 0 0
-0.41043898 0.6379298 0.61693156 0 0 0 0
-0.13450757 -0.39300826 0.013210337 0 0 0 0
-0.71180367 0.45779291 -0.46026474 0 0 0 0
-0.33314329 -0.098465189 0.62920588 0 0 0 0
0.32689103 0.35533103 0.78176564 0 0 0 0
-0.65178889 0.046279769 0.40467656 0 0 0 0
-0.29926366 -0.78503597 0.62598658 0 0 0 0
0.71776986 0.15719995 -0.43676338 0 0 0 0
-0.29614437 -0.94164222 0.49200693 0 0 0 0
-0.18734518 -0.34753537 -0.22577442 0 0 0 0
-1.1419219 0.2782844 -0.43298358 0 0 0 0
-0.078665033 -0.34443462 -0.36584157 0 0 0 0
0.22423141 -0.35685036 0.38342553 0 0 0 0
0.30353528 -0.42624259 0.55362254 0 0 0 0
0.016222849 -0.51380998 0.30154264 0 0 0 0
-0.38690713 -0.20840308 -0.022309046 0 0 0 0
-0.25696382 -0.51333177 0.40296841 0 0 0 0
0.36144167 0.50918537 0.61900288 0 0 0 0
0.70769614 -0.025249504 -0.1283727 0 0 0 0
0.01805523 0.62973523 0.51229584 0 0 0 0
0.4477421 -0.11099257 0.33859751 0 0 0 0
0.24050334 -0.35428309 0.1702397 0 0 0 0
0.41796815 0.27719459 -0.68158919 0 0 0 0
-0.079532832 0.54432595 0.55924261 0 0 0 0
0.25947571 -0.34660619 0.50879395 0 0 0 0
0.3360045 -0.18882753 0.40108368 0 0 0 0
-0.6098913 -0.08968921 0.11470795 0 0 0 0
0.02768689 -0.46954036 0.26163587 0 0 0 0
-0.51231325 -0.09375266 0.54417652 0 0 0 0
0.043291681 0.67803001 -0.72219002 0 0 0 0
0.82632267 0.45289892 -0.099484079 0 0 0 0
-0.58861411 0.16695547 0.66092145 0 0 0 0
0.92715496 0.24188596 -0.33497357 0 0 0 0
-0.57757157 0.33020017 0.68759859 0 0 0 0
0.45510149 0.50876045 0.77157342 0 0 0 0
0.34142396 -0.2493072 0.041023098 0 0 0 0
0.53660524 0.37997484 0.69405323 0 0 0 0
0.26320341 0.53679895 0.79175097 0 0 0 0
0.22715287 0.048427962 0.7382372 0 0 0 0
1.1031573 0.30144712 -0.49762252 0 0 0 0
-0.091360807 -0.91082096 0.66257346 0 0 0 0
-0.63585788 -0.088750646 0.046365563 0 0 0 0
0.6282829 0.26633129 0.65425575 0 0 0 0
0.46567953 0.88707936 -0.23156771 0 0 0 0
0.79006094 0.22060053 0.41011429 0 0 0 0
-0.12445772 0.28315413 -0.79978782 0 0 0 0
0.81705773 0.011758965 -0.26022267 0 0 0 0
-0.75973636 0.39891854 0.39357403 0 0 0 0
0.52931231 0.80588633 -0.35528049 0 0 0 0
-0.37814391 0.30213827 0.8089456 0 0 0 0
-0.80336869 0.57982779 -0.11399928 0 0 0 0
-0.090952866 -0.4273639 0.15492547 0 0 0 0
0.30235475 0.53296095 0.77961147 0 0 0 0
-0.24847452 0.38695464 0.76655322 0 0 0 0
0.37086308 -0.17007893 0.33907557 0 0 0 0
-0.59933031 0.47160161 0.37282747 0 0 0 0
-0.22800113 0.91626179 -0.28133228 0 0 0 0
1.1093096 0.45083937 -0.50368619 0 0 0 0
-0.18294775 0.9485684 -0.021436542 0 0 0 0
-0.010365516 0.89946139 -0.5336405 0 0 0 0
-0.91257727 0.38227567 -0.22877131 0 0 0 0
-0.57522261 -0.088845514 0.16795716 0 0 0 0
-0.47095779 0.40385374 0.71985525 0 0 0 0
0.29505605 -0.30848661 -0.12433019 0 0 0 0
-0.80270976 -0.069657922 -0.13890296 0 0 0 0
0.5035665 -0.14863622 -0.025677323 0 0 0 0
0.72053361 -0.094804674 -0.32885784 0 0 0 0
-0.57998306 0.53896767 0.6212582 0 0 0 0
0.4202944 0.40139711 -0.71318722 0 0 0 0
0.17348672 0.4253462 0.67519289 0 0 0 0
0.29171714 0.91501236 0.060110353 0 0 0 0
0.24963722 0.84751552 0.27398184 0 0 0 0
0.33959356 0.51809609 0.57379627 0 0 0 0
0.6956442 -0.12832557 -0.20921446 0 0 0 0
0.77645206 0.33496037 0.22587365 0 0 0 0
0.20430517 -0.14812072 0.64276016 0 0 0 0
0.58567572 0.79001886 -0.091260225 0 0 0 0
0.96195596 0.27824056 -0.34827501 0 0 0 0
-0.57226539 0.51709896 0.55095875 0 0 0 0
0.65056467 0.34432414 -0.54839349 0 0 0 0
0.73524523 0.4076578 0.31361809 0 0 0 0
-0.77506417 -0.13177669 -0.23396194 0 0 0 0
0.32770187 -0.60093361 0.54644221 0 0 0 0
-0.34064937 -0.91854101 0.48899364 0 0 0 0
0.22349223 -0.95811963 0.52819461 0 0 0 0
0.51028478 0.48173565 0.75767428 0 0 0 0
0.58370388 0.5339731 0.61225706 0 0 0 0
0.70939952 0.68478483 -0.18187177 0 0 0 0
-0.54204303 0.10994493 0.66330832 0 0 0 0
-0.63159412 0.51373309 0.23141314 0 0 0 0
0.76573664 0.32653522 -0.43339399 0 0 0 0
-0.20003924 -0.45985299 0.71389514 0 0 0 0
-0.77962053 0.11531296 -0.39524806 0 0 0 0
-0.36739275 0.076635875 -0.65158969 0 0 0 0
0.52833629 0.31186736 0.68363249 0 0 0 0
-0.085129179 -0.9630304 0.5932653 0 0 0 0
0.20115045 0.34060472 0.77529365 0 0 0 0
-0.087164767 -0.39679602 -0.06428156 0 0 0 0
-0.7500664 0.48190719 -0.41883045 0 0 0 0
0.2801457 -0.29323748 -0.31404525 0 0 0 0
0.37250882 0.15510455 0.80492395 0 0 0 0
0.0012104074 -0.22865018 0.82099867 0 0 0 0
0.026437916 -0.42905849 0.74891651 0 0 0 0
-0.45028737 -0.10874895 -0.34660479 0 0 0 0
0.58951664 -0.1232501 -0.17551339 0 0 0 0
-0.79786348 0.3615877 -0.32559517 0 0 0 0
-0.35820711 0.15860012 -0.6802209 0 0 0 0
0.67859358 0.15537772 -0.46680388 0 0 0 0
0.45514405 -0.084015504 0.46095967 0 0 0 0
0.80510408 -0.0061463118 -0.34132501 0 0 0 0
0.39797521 0.60442221 -0.60350204 0 0 0 0
0.64952081 0.63259876 -0.45381585 0 0 0 0
-0.021145381 0.82994419 -0.59698671 0 0 0 0
-0.067127034 0.68292868 0.44745338 0 0 0 0
0.30223843 0.015592687 0.6609239 0 0 0 0
-0.012169292 0.36429337 0.81975031 0 0 0 0
-0.81127822 0.50515282 0.08644852 0 0 0 0
-0.85465688 -0.039995667 -0.18884619 0 0 0 0
-1.2905751 0.30628347 -0.41072097 0 0 0 0
-0.29310954 -0.69038278 0.6361289 0 0 0 0
0.81074256 0.13843367 0.065487549 0 0 0 0
0.75528181 0.023951449 0.122133 0 0 0 0
0.37413859 0.53405845 -0.66635311 0 0 0 0
-0.78730655 0.40856916 -0.38822877 0 0 0 0
-0.34151885 -0.26567662 -0.18507865 0 0 0 0
0.62432253 0.030967224 0.59947217 0 0 0 0
-1.0470902 0.02779581 -0.41556549 0 0 0 0
0.15169805 -0.13717671 -0.63563621 0 0 0 0
-0.29172376 -0.79668802 0.63414282 0 0 0 0
0.76271129 0.081635326 0.22653364 0 0 0 0
0.35122046 0.51181954 0.62320453 0 0 0 0
-0.43233782 -0.10378859 0.43341288 0 0 0 0
0.024752187 -0.39863411 -0.18821177 0 0 0 0
0.31881523 0.042962223 0.72034943 0 0 0 0
-0.14011711 -0.14061674 0.76950711 0 0 0 0
0.72181803 0.17070138 -0.4391214 0 0 0 0
0.26061124 0.58581007 0.45480397 0 0 0 0
-0.71328539 0.46907538 0.57804406 0 0 0 0
0.310675 -0.83897281 0.60641593 0 0 0 0
-0.40330294 -0.20604682 -0.11685863 0 0 0 0
-0.226908 -0.91677451 0.63087791 0 0 0 0
-0.35631597 0.94046706 -0.068453178 0 0 0 0
0.27093852 -0.24261379 0.40163124 0 0 0 0
-1.0192082 -0.015686173 -0.32899231 0 0 0 0
-0.97266006 0.34801725 -0.28845376 0 0 0 0
-1.0461558 0.28902486 -0.48930219 0 0 0 0
0.37312981 0.40113032 -0.72853631 0 0 0 0
-0.81902963 0.33565223 0.48400134 0 0 0 0
0.22836553 0.42269224 -0.7743125 0 0 0 0
0.34655297 -0.86015809 0.48325431 0 0 0 0
-0.46144578 -0.08731737 0.58313751 0 0 0 0
-1.213801 0.10727683 -0.47901344 0 0 0 0
0.0023082495 -0.08623337 -0.73497498 0 0 0 0
-0.44701326 0.4262208 0.71577543 0 0 0 0
-0.33833784 0.51197076 0.54458714 0 0 0 0
0.26831451 -0.33053166 0.062229618 0 0 0 0
1.2775931 0.21361898 -0.53435284 0 0 0 0
-1.0999967 0.46526125 -0.45182672 0 0 0 0
0.083078437 -0.13433093 0.77073365 0 0 0 0
0.12212199 -0.41605183 0.14509837 0 0 0 0
-0.024710417 -0.33759665 -0.41350141 0 0 0 0
-0.76290256 0.32297999 0.62158108 0 0 0 0
-0.058558822 0.70821035 -0.6861456 0 0 0 0
0.31853276 -0.13769393 0.48235124 0 0 0 0
-0.15117604 0.41205597 0.65660077 0 0 0 0
0.054360103 -0.84628683 0.63742751 0 0 0 0
0.20321986 -0.22813457 -0.48994592 0 0 0 0
-0.80029821 0.34828883 -0.31075233 0 0 0 0
0.00089490414 0.60018724 0.54435372 0 0 0 0
0.2969169 0.37448472 0.76446623 0 0 0 0
0.65154201 0.71054518 -0.028918162 0 0 0 0
0.51099718 -0.079974294 0.50428057 0 0 0 0
0.12580448 0.56136733 0.79032147 0 0 0 0
-0.12861678 0.92036635 -0.33231425 0 0 0 0
0.96289015 0.37880489 -0.25297907 0 0 0 0
-0.036800891 0.65652978 -0.74537688 0 0 0 0
1.1149688 0.049898267 -0.4445537 0 0 0 0
0.52686691 -0.14424437 -0.2102399 0 0 0 0
1.2078221 0.24627101 -0.5183928 0 0 0 0
1.3302623 0.18534806 -0.47622964 0 0 0 0
-0.053638164 -0.19988142 0.82456768 0 0 0 0
-0.55764687 0.017367449 -0.49551484 0 0 0 0
-0.81141049 0.14625677 0.081847228 0 0 0 0
0.10229141 0.94737124 -0.20444849 0 0 0 0
-0.079159513 -0.96329671 0.45782465 0 0 0 0
0.67087299 0.20652589 0.6280722 0 0 0 0
0.45681792 -0.025612868 0.65458727 0 0 0 0
-0.44814259 0.017800119 0.60237849 0 0 0 0
-0.32185027 0.94366992 -0.081882589 0 0 0 0
0.36463055 0.51358819 0.51568842 0 0 0 0
0.19645019 -0.358143 0.69889259 0 0 0 0
0.56336868 0.22673647 0.66037565 0 0 0 0
-0.10129754 -0.86923581 0.39405993 0 0 0 0
-0.28832859 -0.16416176 0.47773129 0 0 0 0
-0.46529546 -0.16696331 -0.057662301 0 0 0 0
0.09375 -0.76216108 0.69514233 0 0 0 0
-0.45516583 0.60625023 0.72132379 0 0 0 0
-0.15349153 0.2343034 -0.78848678 0 0 0 0
-0.75294018 0.067765504 0.24110341 0 0 0 0
-0.33066294 -0.92653644 0.53594792 0 0 0 0
0.093670741 0.019559044 0.7548337 0 0 0 0
-0.13678218 0.47448722 0.83808053 0 0 0 0
0.11481735 -0.70071316 0.35828671 0 0 0 0
-0.51371801 0.49819994 0.76964813 0 0 0 0
1.0856636 0.1489159 -0.40717521 0 0 0 0
0.28831509 -0.25731188 0.28130764 0 0 0 0
-0.503636 0.53873003 -0.6089673 0 0 0 0
-0.95623893 0.3277598 -0.28437573 0 0 0 0
0.27984214 0.9223122 -0.21474494 0 0 0 0
-0.20084187 0.88851291 0.21845436 0 0 0 0
0.2025733 -0.34537843 0.68063927 0 0 0 0
-0.23949224 -0.34421894 0.43684557 0 0 0 0
0.18203247 -0.36272711 -0.11767988 0 0 0 0
0.081981957 0.96396601 -0.035704613 0 0 0 0
-0.19908281 -0.25451952 -0.44618279 0 0 0 0
0.24993385 0.72507179 -0.57394415 0 0 0 0
0.1914596 0.47098777 0.79901367 0 0 0 0
0.25543344 -0.51473945 0.39780807 0 0 0 0
0.098107472 0.49368221 0.66891474 0 0 0 0
-1.1098861 0.42227471 -0.50611174 0 0 0 0
-0.14449731 0.73337054 0.3738693 0 0 0 0
0.52067059 0.44265452 -0.64261991 0 0 0 0
-0.24173896 -0.20907956 0.46837217 0 0 0 0
0.56592995 0.778983 -0.33294633 0 0 0 0
0.76405048 0.32325542 -0.43577689 0 0 0 0
-0.18264915 0.35310841 -0.78513086 0 0 0 0
-0.12963802 -0.3932741 0.0043857205 0 0 0 0
-0.62625158 0.73110551 -0.3088077 0 0 0 0
0.034970976 0.22607431 -0.82473195 0 0 0 0
-0.31830162 -0.21783464 0.31311896 0 0 0 0
-0.66115701 0.72787321 -0.19953743 0 0 0 0
1.2502294 0.47892362 -0.45317629 0 0 0 0
0.24851638 -0.69315994 0.37770098 0 0 0 0
0.14030842 -0.237128 -0.51354408 0 0 0 0
0.10697283 -0.73791718 0.72987247 0 0 0 0
0.87918961 -0.10727632 -0.19614995 0 0 0 0
-0.042197585 0.74836439 -0.65902001 0 0 0 0
0.15257192 -0.11897408 0.75095582 0 0 0 0
-0.17564398 0.061407868 -0.74191278 0 0 0 0
-1.3070595 0.38529912 -0.48566821 0 0 0 0
-0.015837878 0.56420034 -0.84102404 0 0 0 0
0.74764496 0.11257181 0.51318192 0 0 0 0
-0.2500774 -0.90029728 0.62767547 0 0 0 0
-0.79958236 0.60164505 -0.10226116 0 0 0 0
1.0603485 0.16743666 -0.49268317 0 0 0 0
-0.57350683 0.7738871 0.050264608 0 0 0 0
-0.22087467 0.48866841 0.78610224 0 0 0 0
1.132154 0.11156681 -0.43902853 0 0 0 0
0.085247636 0.97374469 -0.078364618 0 0 0 0
0.84010637 0.036088318 -0.29761869 0 0 0 0
0.33006302 0.67320436 0.36380231 0 0 0 0
-0.71780378 0.51820755 -0.43440533 0 0 0 0
-0.17224899 0.83973932 0.29278454 0 0 0 0
0.18376186 -0.91283947 0.4214552 0 0 0 0
-1.0192194 -0.0026056804 -0.39374706 0 0 0 0
-0.62789083 0.46700263 0.44105136 0 0 0 0
1.2902827 0.38120642 -0.41388512 0 0 0 0
0.29469663 0.54669523 0.47496101 0 0 0 0
0.20179915 0.95540184 -0.097737081 0 0 0 0
-0.37342227 -0.007233806 0.69169563 0 0 0 0
0.65007436 0.27814043 0.64271557 0 0 0 0
0.061021358 0.51230961 -0.83030915 0 0 0 0
0.24209356 0.38140026 -0.76810265 0 0 0 0
-0.11770192 -0.74781281 0.72642535 0 0 0 0
0.045230098 -0.44082111 0.74970061 0 0 0 0
0.22640482 0.58488446 0.60291433 0 0 0 0
0.0099343956 0.41181046 -0.84131557 0 0 0 0
0.93155384 0.36871552 -0.22822581 0 0 0 0
0.04162851 -0.73182893 0.734375 0 0 0 0
0.17725968 0.86724299 -0.49697879 0 0 0 0
-0.47346872 0.60493058 0.70363963 0 0 0 0
-1.0617625 0.25862011 -0.38523513 0 0 0 0
-0.80319333 0.13668072 0.46588066 0 0 0 0
-0.45861128 -0.15309614 0.12322604 0 0 0 0
-0.60758591 0.657956 0.14734323 0 0 0 0
0.034434952 -0.43788901 0.10383767 0 0 0 0
-0.2850216 -0.4334498 0.50294733 0 0 0 0
0.078310885 -0.5502671 0.3445721 0 0 0 0
-0.70420873 0.42632803 0.39262453 0 0 0 0
-1.2266903 0.18667257 -0.42916146 0 0 0 0
-0.30865872 0.086113662 0.75714189 0 0 0 0
0.6493125 -0.0012527071 0.48660728 0 0 0 0
-0.38734689 -0.21705757 -0.097765148 0 0 0 0
0.45341003 0.71655589 -0.49611735 0 0 0 0
1.0301818 0.44958702 -0.43908423 0 0 0 0
0.3857646 -0.19190031 -0.32962632 0 0 0 0
0.65937537 -0.08528246 -0.29586884 0 0 0 0
-0.34835869 -0.20595764 -0.3902339 0 0 0 0
-1.3438845 0.33143067 -0.44798979 0 0 0 0
-1.2528018 0.28288734 -0.53316581 0 0 0 0
-0.47405899 0.60842866 0.66884977 0 0 0 0
-0.42875072 -0.17803998 -0.017970741 0 0 0 0
-0.067670077 -0.85720223 0.38055268 0 0 0 0
-0.78937453 0.092511587 -0.38032648 0 0 0 0
-0.68682337 0.46140602 0.26630795 0 0 0 0
-1.1008258 0.41069961 -0.50280946 0 0 0 0
-0.38842323 0.85669035 -0.41750309 0 0 0 0
0.80437928 -0.025830373 -0.33984128 0 0 0 0
0.016370311 -0.36580944 -0.37046969 0 0 0 0
0.22897255 0.65781593 0.81628931 0 0 0 0
-1.0047213 -0.093644157 -0.44507498 0 0 0 0
-0.5010621 0.12700805 0.70806468 0 0 0 0
-0.70583296 -0.12854229 -0.21513791 0 0 0 0
0.30858839 0.93135464 -0.15169048 0 0 0 0
-0.096989475 -0.20737445 -0.59120119 0 0 0 0
0.12108442 0.95344418 -0.15762372 0 0 0 0
0.9652856 -0.02585759 -0.2720634 0 0 0 0
0.67867965 0.4339242 0.3372477 0 0 0 0
-0.29583877 -0.16548388 0.53624469 0 0 0 0
-0.88074517 -0.10273405 -0.38842884 0 0 0 0
0.20951048 0.58894002 -0.70858151 0 0 0 0
-0.19345139 -0.31191495 0.68297207 0 0 0 0
-0.32318175 -0.8565408 0.41291744 0 0 0 0
-0.63570601 -0.091275908 0.019484267 0 0 0 0
0.12857361 -0.86319178 0.39964241 0 0 0 0
-0.84313989 -0.11063634 -0.16752212 0 0 0 0
0.33567664 0.71501333 0.66011298 0 0 0 0
-0.25297949 -0.33214524 -0.20555788 0 0 0 0
-0.23659569 -0.14353096 -0.59212297 0 0 0 0
0.50783002 0.59461331 0.33299923 0 0 0 0
0.17936024 0.62722427 0.61662143 0 0 0 0
-0.53103489 0.69539601 0.24051172 0 0 0 0
-0.58290064 -0.079273596 -0.31192067 0 0 0 0
0.20432171 -0.30643952 -0.34491837 0 0 0 0
-0.31215015 -0.055678651 -0.60925877 0 0 0 0
0.32074684 -0.83307105 0.41753399 0 0 0 0
0.25099126 -0.45019352 0.65641463 0 0 0 0
0.098671645 -0.63610715 0.73764622 0 0 0 0
-0.80214483 0.49713215 -0.30719379 0 0 0 0
-0.52225792 -0.14472467 -0.21585277 0 0 0 0
0.29272488 0.83197755 -0.47573045 0 0 0 0
0.5716812 0.80367208 -0.21134569 0 0 0 0
-0.77888638 0.13085088 -0.082324721 0 0 0 0
0.66815758 -0.07697092 0.032948658 0 0 0 0
-0.19996658 -0.34463117 -0.22145177 0 0 0 0
-0.2746439 0.60361207 -0.65827906 0 0 0 0
-0.18863347 -0.3432484 -0.2567319 0 0 0 0
0.141203 -0.46784335 0.29812616 0 0 0 0
-0.25379443 -0.11489657 -0.60118282 0 0 0 0
1.1576713 0.45658496 -0.51973593 0 0 0 0
0.32693127 0.75826657 0.31337187 0 0 0 0
0.29317474 -0.59253621 0.46162647 0 0 0 0
0.80856174 0.17983434 0.18910313 0 0 0 0
0.72126651 -0.13397279 -0.16206692 0 0 0 0
-1.2048407 0.14158633 -0.44115973 0 0 0 0
-0.14141598 0.88783586 0.25478673 0 0 0 0
0.63209808 -0.02286033 0.5051719 0 0 0 0
-0.82439202 0.2650409 0.47329375 0 0 0 0
-0.79222709 -0.13484894 -0.18258785 0 0 0 0
-0.79786789 0.5320248 -0.34686854 0 0 0 0
0.32790425 0.38983136 0.75804049 0 0 0 0
-0.026272073 -0.098198742 -0.7168889 0 0 0 0
-0.57916087 0.25199926 0.63663548 0 0 0 0
0.56459606 -0.11228236 0.102776 0 0 0 0
0.69796437 0.028017625 0.27658197 0 0 0 0
-0.25726762 -0.95632482 0.53869689 0 0 0 0
1.2739558 0.44201887 -0.44377443 0 0 0 0
-0.20399579 -0.81457114 0.68569726 0 0 0 0
0.060953192 -0.12895422 0.77764541 0 0 0 0
1.0708724 0.018991616 -0.38207346 0 0 0 0
-0.43776906 0.15402664 -0.63587093 0 0 0 0
0.3802276 0.88951951 0.11939712 0 0 0 0
-0.12659353 -0.57690775 0.3603763 0 0 0 0
-0.49468708 0.090156659 -0.56853801 0 0 0 0
0.037125081 0.75997871 0.39317885 0 0 0 0
0.78880012 -0.050264299 -0.34641764 0 0 0 0
-0.28592706 -0.11220703 -0.58775711 0 0 0 0
0.6735118 0.42801043 -0.50334662 0 0 0 0
-0.49224016 0.85288036 -0.29299942 0 0 0 0
0.45638126 0.90971392 -0.15675017 0 0 0 0
0.023616813 0.43516856 0.70590782 0 0 0 0
-0.47110039 -0.12342125 0.20904759 0 0 0 0
-0.76407462 0.10909142 0.29030669 0 0 0 0
0.76528203 0.6243583 -0.19400239 0 0 0 0
0.29026246 0.42328805 0.73111349 0 0 0 0
-0.091824904 0.27300268 -0.80939186 0 0 0 0
0.72185206 -0.016132534 0.15025587 0 0 0 0
-0.44341576 0.1575141 -0.63348669 0 0 0 0
-0.85900843 0.38066122 -0.35756749 0 0 0 0
0.8082341 0.39956507 0.481745 0 0 0 0
0.15958992 0.66713363 0.70048773 0 0 0 0
-0.0045393705 0.92605132 -0.3929047 0 0 0 0
-0.063203439 -0.96296507 0.59974021 0 0 0 0
-0.025593668 0.90700573 -0.48124719 0 0 0 0
-0.30292964 -0.30129704 -0.16295926 0 0 0 0
-0.24454971 -0.3574582 0.056901224 0 0 0 0
-0.29851821 -0.30993664 -0.24889114 0 0 0 0
-0.087288588 -0.82055438 0.65173078 0 0 0 0
0.16208681 0.94305199 0.0095363557 0 0 0 0
-1.1767482 0.39321166 -0.52157956 0 0 0 0
0.055164069 0.93553555 0.099512562 0 0 0 0
0.96166283 0.22242646 -0.44544923 0 0 0 0
0.75614858 0.073720351 0.24559696 0 0 0 0
1.1222547 0.41639239 -0.36330923 0 0 0 0
-0.072975941 -0.97776723 0.56467521 0 0 0 0
-0.40903941 0.88752949 -0.30846784 0 0 0 0
0.4606213 0.90872991 -0.14417988 0 0 0 0
-0.68769968 0.13396618 0.59809512 0 0 0 0
-0.69311905 0.028677255 0.51706868 0 0 0 0
-0.80887932 0.31485593 -0.26060826 0 0 0 0
-0.75575703 0.061616004 0.21865739 0 0 0 0
-0.16310349 0.79238045 -0.55920964 0 0 0 0
0.12846617 -0.38727227 -0.039879918 0 0 0 0
-0.31182727 0.61047798 0.59093171 0 0 0 0
0.75313568 0.46476856 0.61768568 0 0 0 0
-0.37638301 0.11085874 -0.65758556 0 0 0 0
0.20204069 -0.18531275 0.5680244 0 0 0 0
0.50443143 0.52315104 0.38123885 0 0 0 0
0.20277365 0.74005163 -0.58218896 0 0 0 0
-0.6083436 0.48482078 -0.54224271 0 0 0 0
-0.73913169 0.48899174 0.22608194 0 0 0 0
0.81878793 -0.057869758 -0.15989888 0 0 0 0
0.39300218 0.023007624 0.66231495 0 0 0 0
-0.69683546 0.050409392 0.52811551 0 0 0 0
0.093053907 0.51612872 -0.82058918 0 0 0 0
0.28368926 0.59828597 -0.65797204 0 0 0 0
0.1768997 0.1995502 0.77855802 0 0 0 0
0.23308423 -0.2897276 0.36363068 0 0 0 0
0.60389841 -0.048985023 0.25379181 0 0 0 0
0.41948119 0.89591479 0.076656975 0 0 0 0
0.045061022 -0.86725783 0.68668646 0 0 0 0
-0.50634503 -0.15332198 -0.089134797 0 0 0 0
0.05042715 -0.32657143 -0.41640949 0 0 0 0
-0.78717726 0.2402557 0.2667633 0 0 0 0
0.044064522 0.89852142 0.26390991 0 0 0 0
-0.1328461 0.64614916 -0.70023906 0 0 0 0
-0.023031414 0.16578892 -0.82555199 0 0 0 0
0.18719675 0.57837927 0.84644103 0 0 0 0
-0.31505081 0.37678522 -0.74533039 0 0 0 0
-0.40309548 0.79050982 -0.46126157 0 0 0 0
-0.30351803 0.90467995 0.095055304 0 0 0 0
0.31386814 -0.59044737 0.51587021 0 0 0 0
0.060357541 0.48443651 -0.8291871 0 0 0 0
0.4747037 0.38034871 0.70813346 0 0 0 0
-0.25255534 0.91708875 -0.25869438 0 0 0 0
0.1965248 0.17008319 0.75893873 0 0 0 0
0.77301049 0.14675358 -0.22075966 0 0 0 0
-0.25384429 -0.29051751 0.29835796 0 0 0 0
-1.0101596 0.090807512 -0.38033172 0 0 0 0
-0.88739049 0.40000647 -0.34211522 0 0 0 0
-1.031391 0.25161541 -0.48750609 0 0 0 0
-1.3120486 0.19394144 -0.42430061 0 0 0 0
-0.4371703 -0.1626772 -0.26282954 0 0 0 0
-0.046024218 -0.97691411 0.57863265 0 0 0 0
-0.17100893 -0.8566404 0.68195587 0 0 0 0
0.2193394 -0.12212326 0.68252534 0 0 0 0
-0.22341412 0.77124941 -0.5501523 0 0 0 0
0.1719429 0.88934773 -0.46952185 0 0 0 0
1.040453 -0.073759139 -0.32134259 0 0 0 0
0.38135564 -0.095058322 0.61446345 0 0 0 0
0.19826962 0.9210977 0.080675356 0 0 0 0
-0.026680976 -0.57584506 0.32881051 0 0 0 0
-0.10796148 0.48161426 0.63374412 0 0 0 0
-0.15389538 0.70836449 0.75308466 0 0 0 0
-0.24068847 0.49418712 0.53495789 0 0 0 0
0.3175306 0.90461546 -0.27983603 0 0 0 0
1.3092006 0.10321146 -0.47865587 0 0 0 0
0.61616671 -0.09586221 0.055306446 0 0 0 0
0.85651284 -0.12055314 -0.30120292 0 0 0 0
0.40871254 -0.15037411 0.26774755 0 0 0 0
-0.060043126 0.89383996 -0.52547938 0 0 0 0
-0.11781174 0.96609926 -0.060270853 0 0 0 0
0.27139199 0.43356287 0.70985526 0 0 0 0
-0.1536731 -0.31401244 -0.3678782 0 0 0 0
0.13430652 0.14151329 -0.78248382 0 0 0 0
0.38542622 -0.032736786 0.67894417 0 0 0 0
0.78490359 0.17502365 -0.20096497 0 0 0 0
0.84517145 0.3381829 0.53733897 0 0 0 0
0.44966125 0.17099079 -0.63409323 0 0 0 0
-0.017270254 -0.58158797 0.32591423 0 0 0 0
-0.37696916 0.11191051 -0.6575588 0 0 0 0
0.62459421 0.73254359 -0.30903497 0 0 0 0
-0.74590212 0.40688193 0.28674662 0 0 0 0
0.39668649 0.52664453 0.53651619 0 0 0 0
-0.074011229 -0.91214383 0.66373557 0 0 0 0
1.0995166 0.48476607 -0.36544263 0 0 0 0
0.23210053 -0.95963395 0.53974628 0 0 0 0
-0.043458045 -0.022431001 0.75791466 0 0 0 0
0.43948022 0.89828539 -0.23579405 0 0 0 0
-0.39527327 -0.20081368 -0.017128341 0 0 0 0
0.71967709 0.56805366 0.14748217 0 0 0 0
-0.17392033 -0.33886975 -0.30637857 0 0 0 0
0.40510276 0.63432181 0.37340501 0 0 0 0
-1.0675144 0.015170798 -0.41085112 0 0 0 0
0.29128611 -0.23558198 -0.41405126 0 0 0 0
0.26218435 0.82727528 0.28382519 0 0 0 0
-0.40359762 0.86882043 0.18952562 0 0 0 0
0.53733397 0.58645874 0.30508345 0 0 0 0
-0.45635453 0.86055368 0.18624203 0 0 0 0
-0.12773639 0.64945447 0.75506186 0 0 0 0
0.38680473 0.350021 0.77253461 0 0 0 0
1.1721014 0.2854929 -0.51197165 0 0 0 0
0.67460239 -0.073802017 -0.16460526 0 0 0 0
0.09698303 -0.84026957 0.38300341 0 0 0 0
-0.11783764 0.80127728 -0.57125056 0 0 0 0
-0.37516025 -0.23612882 -0.17236261 0 0 0 0
-0.45308682 0.88884437 -0.27455387 0 0 0 0
-0.50851518 -0.088712782 -0.35263693 0 0 0 0
0.63008904 -0.05970747 0.18126923 0 0 0 0
-0.28928286 0.62390149 0.41090786 0 0 0 0
-0.32841492 0.88455009 0.16360068 0 0 0 0
-0.36732611 0.67378092 0.75458652 0 0 0 0
-0.19607599 -0.88952857 0.65759581 0 0 0 0
0.0070400834 0.60594577 0.53700745 0 0 0 0
0.99807256 0.45306408 -0.29432842 0 0 0 0
0.88722277 -0.017549761 -0.39412725 0 0 0 0
-0.18733037 0.70255685 0.77394009 0 0 0 0
-0.68765175 -0.03200382 -0.40088585 0 0 0 0
-0.048647851 0.81269258 0.34347585 0 0 0 0
-0.5421049 -0.063330486 -0.38012615 0 0 0 0
1.0944482 0.32221565 -0.43131083 0 0 0 0
-0.99787962 -0.021165423 -0.30437309 0 0 0 0
0.72960049 0.4876602 0.22854789 0 0 0 0
-0.13562709 -0.69619101 0.36479875 0 0 0 0
-0.34499753 0.61781907 0.82427108 0 0 0 0
0.061973006 0.05965735 -0.7932871 0 0 0 0
0.63327903 0.75139815 -0.16032542 0 0 0 0
-0.2065032 -0.0094061494 -0.68603081 0 0 0 0
0.30184251 -0.29607671 -0.012688741 0 0 0 0
-0.49229306 0.7024551 0.28330743 0 0 0 0
-0.19754693 0.17332169 -0.76055038 0 0 0 0
0.37898549 -0.23791043 -0.23691863 0 0 0 0
0.48493454 -0.15008259 0.040438291 0 0 0 0
0.6674906 0.72548616 -0.1729292 0 0 0 0
-1.2961974 0.059807479 -0.52877927 0 0 0 0
0.26351303 -0.24514228 0.42382285 0 0 0 0
0.90372926 -0.013627965 -0.28523341 0 0 0 0
-0.013133466 -0.86148876 0.64787108 0 0 0 0
0.83780205 0.16457801 -0.36495969 0 0 0 0
-0.57152009 -0.061844412 0.54794139 0 0 0 0
0.77810287 0.50407124 0.18480065 0 0 0 0
-0.59623486 0.23656768 0.60920918 0 0 0 0
0.32292905 -0.7870512 0.44792652 0 0 0 0
0.42135876 0.90097499 -0.23359378 0 0 0 0
-0.043675184 0.9739517 -0.057278715 0 0 0 0
-0.10965698 0.29885253 0.76783067 0 0 0 0
1.1874913 -0.00083700567 -0.44249862 0 0 0 0
-0.79398394 0.51555014 -0.36699384 0 0 0 0
0.24887761 0.032482281 0.66118813 0 0 0 0
0.26137719 0.092693776 -0.70937246 0 0 0 0
-0.23488511 0.60416669 0.83613425 0 0 0 0
-0.6624099 0.24154267 -0.51487488 0 0 0 0
0.7982198 0.40176645 0.15510032 0 0 0 0
-0.31083706 0.63455665 0.39332041 0 0 0 0
0.16418937 0.90978104 0.14820564 0 0 0 0
0.56401408 0.6940192 0.18775779 0 0 0 0
-0.14280099 0.65722859 0.43979901 0 0 0 0
0.16627996 0.2294784 -0.7843039 0 0 0 0
0.79214221 0.21720293 0.53323144 0 0 0 0
0.67872941 0.43770078 0.36705413 0 0 0 0
0.82927108 0.19338726 0.090744331 0 0 0 0
-1.0208336 -0.055573668 -0.29981229 0 0 0 0
0.22985761 -0.36903065 0.16361836 0 0 0 0
-0.41038716 -0.19504231 -0.07417874 0 0 0 0
-0.71960902 -0.037782542 -0.16724776 0 0 0 0
0.30603161 -0.68075871 0.44841039 0 0 0 0
0.11887822 0.50465983 0.63192379 0 0 0 0
0.15982576 0.71517766 0.74796516 0 0 0 0
0.5080055 0.25299293 -0.62502515 0 0 0 0
0.54219031 0.55566287 0.31880474 0 0 0 0
-0.39947066 0.72905976 0.3176299 0 0 0 0
-0.20313771 0.66174102 -0.64617252 0 0 0 0
0.27284741 0.2654677 0.82259876 0 0 0 0
0.21463965 0.0594142 0.74241048 0 0 0 0
-0.68609047 0.21077502 -0.48364103 0 0 0 0
-0.28089452 -0.48120183 0.61892366 0 0 0 0
-0.091873139 -0.44215044 0.74573773 0 0 0 0
-0.50290847 0.51042455 0.44313523 0 0 0 0
0.23467276 -0.14807606 -0.59030735 0 0 0 0
-0.52404195 -0.14626773 -0.089874417 0 0 0 0
0.43073529 0.39089414 0.75975424 0 0 0 0
0.02937115 -0.10762002 0.75672346 0 0 0 0
0.67537504 0.43308169 0.31577769 0 0 0 0
-0.51685971 0.15444465 -0.5808661 0 0 0 0
-0.87517983 0.34148198 -0.21188667 0 0 0 0
0.15293966 0.67927718 0.7271629 0 0 0 0
-0.19989073 0.037886165 0.64267135 0 0 0 0
-0.019815277 0.59626186 0.54029679 0 0 0 0
0.17029183 -0.47590259 0.72237015 0 0 0 0
-0.014528068 0.4285796 0.69299155 0 0 0 0
-0.41087589 0.58974856 0.57123876 0 0 0 0
0.26973906 0.48954129 0.52788788 0 0 0 0
-0.50354737 -0.13294969 -0.2780773 0 0 0 0
0.58748955 -0.12287084 -0.1133268 0 0 0 0
0.6533615 -0.024141073 -0.40886074 0 0 0 0
-0.55186433 0.52552956 0.72047323 0 0 0 0
0.47551456 -0.052657031 -0.42572847 0 0 0 0
0.011466628 -0.6911304 0.33468744 0 0 0 0
-0.616822 -0.1262264 -0.16852956 0 0 0 0
0.40273616 0.79034412 0.28028768 0 0 0 0
-0.58143151 0.66274577 -0.48291764 0 0 0 0
0.26804286 -0.79549217 0.38476354 0 0 0 0
-0.1558872 0.7771824 0.33328271 0 0 0 0
-0.54220659 0.51034689 0.34696683 0 0 0 0
0.40425241 -0.12281128 0.56830072 0 0 0 0
-0.66089642 0.62902904 -0.44527352 0 0 0 0
0.1229296 -0.13681887 -0.64930856 0 0 0 0
1.0677979 0.073068902 -0.41560939 0 0 0 0
-0.83617586 0.33954483 0.5196647 0 0 0 0
-0.12124664 0.59762937 -0.75083357 0 0 0 0
-0.86764491 0.14174582 -0.38407129 0 0 0 0
0.19968052 -0.39271089 0.15381327 0 0 0 0
0.52863908 0.51049531 0.75772983 0 0 0 0
1.2765954 0.16107512 -0.41956833 0 0 0 0
-0.92062461 0.048954017 -0.4171012 0 0 0 0
0.79235393 0.17859279 -0.14956604 0 0 0 0
0.10603708 -0.74502909 0.7281937 0 0 0 0
-0.30541596 0.88638026 -0.38717225 0 0 0 0
1.0781876 0.11936805 -0.49583265 0 0 0 0
0.80027825 0.2695542 0.43488175 0 0 0 0
0.32708988 -0.78659099 0.4601588 0 0 0 0
-1.2705338 0.42705393 -0.41694942 0 0 0 0
0.32542649 0.37287152 0.76904273 0 0 0 0
0.45869169 0.55919558 -0.61242032 0 0 0 0
-0.31195101 -0.80565107 0.60820091 0 0 0 0
0.6673122 0.12248348 0.61409312 0 0 0 0
-0.1908707 0.56717294 -0.73891091 0 0 0 0
0.46588054 0.58002394 0.73551589 0 0 0 0
1.2945073 0.091524318 -0.44098756 0 0 0 0
-0.25958622 -0.34464628 0.51221102 0 0 0 0
0.26449057 0.6046446 0.43713847 0 0 0 0
0.018121284 0.62863994 -0.78128207 0 0 0 0
-0.58134854 0.011106546 -0.4771021 0 0 0 0
-0.59491593 0.66514039 0.161919 0 0 0 0
-0.779706 -0.031118181 -0.20200396 0 0 0 0
-0.23600426 0.047848936 0.68184865 0 0 0 0
-0.40363058 -0.060728297 0.65132689 0 0 0 0
0.46482742 0.57527602 0.56758916 0 0 0 0
0.45352075 0.88550997 0.10037862 0 0 0 0
-1.0829722 0.30944264 -0.41702148 0 0 0 0
0.39579913 0.17200275 -0.66412824 0 0 0 0
-0.81847686 0.5145759 -0.092872858 0 0 0 0
-0.68329227 0.15928455 -0.46471411 0 0 0 0
1.2651799 0.44654772 -0.53082103 0 0 0 0
-0.72498429 0.64921606 -0.24327582 0 0 0 0
0.41771761 -0.14286591 -0.35726616 0 0 0 0
-0.23521489 0.82503724 -0.50476557 0 0 0 0
-0.60128498 0.73562789 0.087089464 0 0 0 0
0.0077827424 0.77266628 0.39381325 0 0 0 0
-0.1304843 -0.89830863 0.41211703 0 0 0 0
-0.84658009 0.3252399 0.54003215 0 0 0 0
0.20301208 0.9337337 0.027320266 0 0 0 0
1.2119509 0.38104424 -0.52996701 0 0 0 0
0.26049674 0.94786578 -0.05385983 0 0 0 0
0.27624631 0.76014209 0.32150835 0 0 0 0
0.80756676 0.17102146 0.17224531 0 0 0 0
-0.97489482 0.11233801 -0.45323786 0 0 0 0
-0.25037745 0.72302186 0.70608371 0 0 0 0
0.2918534 -0.22917673 0.37784064 0 0 0 0
-0.54661798 0.67347431 -0.4894512 0 0 0 0
-0.24324822 -0.44320357 0.39481318 0 0 0 0
0.49931487 -0.086286433 0.29526243 0 0 0 0
0.49102464 0.87973118 -0.028816823 0 0 0 0
-0.33334613 0.67918342 -0.5739646 0 0 0 0
-0.10736065 -0.4278008 0.19394381 0 0 0 0
-0.31375813 -0.80942661 0.60558283 0 0 0 0
0.6998207 0.38455507 0.67505968 0 0 0 0
-0.28805524 0.88241601 0.1954297 0 0 0 0
-1.0701041 0.033041492 -0.4955408 0 0 0 0
-0.39414996 0.55429846 0.57032859 0 0 0 0
0.49299499 0.7381596 -0.46324602 0 0 0 0
0.095363155 0.039868839 -0.76625335 0 0 0 0
-0.83698225 0.40896425 0.0063784793 0 0 0 0
0.22227617 -0.4138042 0.35651332 0 0 0 0
0.76624554 -0.1278981 -0.13032928 0 0 0 0
0.39380467 0.59557521 0.39870146 0 0 0 0
-0.79736364 0.28480715 0.1962249 0 0 0 0
-0.58630747 0.23424318 -0.56721067 0 0 0 0
0.31405705 -0.87988746 0.39489353 0 0 0 0
-0.77423197 0.30509633 -0.4288868 0 0 0 0
-0.4945091 -0.12840991 -0.29339519 0 0 0 0
-0.35109448 0.26363751 0.82438731 0 0 0 0
-0.16459563 0.2764138 -0.78705949 0 0 0 0
0.40483978 -0.01696416 0.67968088 0 0 0 0
-0.49257165 0.57489115 -0.58637911 0 0 0 0
0.013255253 0.77732742 -0.64919025 0 0 0 0
0.25050396 0.029598959 0.65678132 0 0 0 0
-0.62887758 -0.0087292707 -0.43313727 0 0 0 0
-0.55534697 -0.08789514 -0.32895178 0 0 0 0
-0.8251977 0.46548948 -0.0093078241 0 0 0 0
-0.097792 -0.31146497 -0.41288263 0 0 0 0
1.0163364 -0.1044534 -0.31721118 0 0 0 0
-0.29763946 0.71176744 0.34660453 0 0 0 0
-0.6995874 0.67531908 -0.034827776 0 0 0 0
0.36183506 0.45125887 0.73930991 0 0 0 0
0.59624821 0.2112633 -0.55096722 0 0 0 0
-0.38739392 0.53750765 0.44647577 0 0 0 0
-0.57064241 0.10137908 0.65111494 0 0 0 0
-0.348277 0.72145712 -0.53595185 0 0 0 0
0.23498252 0.72845131 -0.57758927 0 0 0 0
-0.33716843 -0.19797695 0.33908582 0 0 0 0
1.0552121 0.22940439 -0.38345557 0 0 0 0
0.56053609 -0.12902218 -0.20289753 0 0 0 0
-0.29836124 0.89546156 -0.34284559 0 0 0 0
0.11314581 0.58676594 -0.76528758 0 0 0 0
-0.69365788 0.63821483 -0.39389783 0 0 0 0
-0.77903795 -0.13644767 -0.1773916 0 0 0 0
0.63609958 -0.11657625 -0.15862295 0 0 0 0
0.77957475 0.067551032 -0.26732624 0 0 0 0
0.93830818 0.047345195 -0.33289975 0 0 0 0
-0.25857696 0.91184479 0.087490767 0 0 0 0
0.33865556 0.22766453 -0.70732599 0 0 0 0
0.35658309 -0.17264014 0.39586064 0 0 0 0
0.054416515 0.93764526 -0.29284284 0 0 0 0
0.11379247 0.72746122 -0.63731337 0 0 0 0
0.14339854 0.43065491 0.80884296 0 0 0 0
-1.2306484 0.098893568 -0.51865089 0 0 0 0
0.98281866 0.015205421 -0.45716867 0 0 0 0
-0.21541667 -0.49368876 0.36369878 0 0 0 0
-0.7752884 0.5193904 0.18336174 0 0 0 0
1.1616439 0.39802021 -0.40349814 0 0 0 0
0.019925458 -0.4311938 0.025881946 0 0 0 0
0.3452844 -0.88889843 0.55149454 0 0 0 0
0.062106714 0.75204909 0.39017662 0 0 0 0
0.55937576 -0.045133211 0.47814903 0 0 0 0
-1.2809826 0.42436093 -0.50079894 0 0 0 0
-0.8271662 0.20560892 0.1367045 0 0 0 0
-0.76412296 0.49734345 0.2132183 0 0 0 0
-0.53985667 0.52149552 0.52368933 0 0 0 0
-0.34079865 0.46532357 0.6936534 0 0 0 0
-0.67898893 0.18224704 -0.47751737 0 0 0 0
-0.32661223 0.60881919 0.40919322 0 0 0 0
-0.79019511 0.35301054 0.18562149 0 0 0 0
-0.68644387 0.58463687 -0.43855762 0 0 0 0
0.39149022 -0.042781349 -0.5696159 0 0 0 0
0.99991834 0.45625174 -0.35281044 0 0 0 0
-0.53142327 0.087043703 -0.54215562 0 0 0 0
0.35212725 0.043759216 -0.64684552 0 0 0 0
-0.11610022 0.55016524 0.5410403 0 0 0 0
-0.15264696 0.29998654 0.72525567 0 0 0 0
-0.45835808 0.18642464 0.75219429 0 0 0 0
0.17753194 0.31456944 -0.78487754 0 0 0 0
-1.1320359 0.46420288 -0.48000404 0 0 0 0
0.22693998 -0.33158594 0.40733427 0 0 0 0
0.49023321 -0.16106665 -0.10291833 0 0 0 0
-0.25563657 0.43847066 0.69481671 0 0 0 0
0.34629032 -0.24755998 -0.045751847 0 0 0 0
-0.23168415 0.50348806 0.59287947 0 0 0 0
0.77157843 0.23478477 0.32375157 0 0 0 0
0.57044452 0.77291662 -0.33996904 0 0 0 0
-0.33447206 -0.27915746 -0.2505464 0 0 0 0
0.57560754 -0.080995634 0.19253343 0 0 0 0
1.0396399 -0.096737616 -0.37511182 0 0 0 0
0.375631 -0.17284602 0.2979098 0 0 0 0
-0.44870949 0.010414015 0.67145973 0 0 0 0
-0.49464169 0.35547143 0.70766556 0 0 0 0
-0.46330905 0.5635581 0.40208784 0 0 0 0
-0.18542188 -0.79636848 0.69514477 0 0 0 0
-0.11351372 0.49234647 0.58464766 0 0 0 0
0.42858702 -0.18708265 -0.11611818 0 0 0 0
0.48797441 0.89079803 -0.12100756 0 0 0 0
0.60289097 0.78456068 -0.17816192 0 0 0 0
-0.09375 -0.79386181 0.70215338 0 0 0 0
-0.47393608 0.35875517 0.72162813 0 0 0 0
-0.1943433 0.91484594 -0.31390318 0 0 0 0
-0.042506762 0.86508697 0.3012923 0 0 0 0
-0.65553039 0.0066656228 0.32081091 0 0 0 0
-0.099859193 -0.029600009 0.77708799 0 0 0 0
-0.362804 0.89160728 -0.31677616 0 0 0 0
0.34408864 0.73348361 0.72129571 0 0 0 0
0.16633964 0.43023381 0.78868937 0 0 0 0
-0.56256253 0.7280274 0.16104966 0 0 0 0
1.0536774 0.34234199 -0.38764292 0 0 0 0
-0.47647226 0.58250636 0.60871589 0 0 0 0
-0.12931436 0.90958112 -0.39062756 0 0 0 0
0.17338741 0.057531867 0.7525382 0 0 0 0
0.39991346 0.011743512 0.63491786 0 0 0 0
-0.71756917 0.66287112 -0.22419189 0 0 0 0
-0.86970341 0.39022833 -0.32900244 0 0 0 0
0.068579309 -0.51156259 0.74563777 0 0 0 0
0.77890009 0.15327245 -0.2384041 0 0 0 0
0.50659472 -0.14791405 -0.031105936 0 0 0 0
0.51578605 0.58179533 0.68891406 0 0 0 0
0.47094387 -0.094072208 0.35096011 0 0 0 0
0.14158595 0.53275114 0.61181933 0 0 0 0
-0.82375795 0.27847436 0.11602361 0 0 0 0
0.48345 0.87475759 0.021225423 0 0 0 0
0.29764864 0.58583015 -0.6613403 0 0 0 0
-0.23069726 0.043637998 0.73733652 0 0 0 0
0.57910979 0.15727496 0.58796817 0 0 0 0
0.32648116 0.57133222 0.79726487 0 0 0 0
-0.67496336 0.50020218 0.22411963 0 0 0 0
0.52273548 0.35540998 0.70548797 0 0 0 0
-0.051781386 0.92438906 0.14904186 0 0 0 0
-0.57922983 0.20200977 0.61664945 0 0 0 0
0.73893338 0.50763178 -0.41989082 0 0 0 0
-0.37747544 -0.023554962 0.68353504 0 0 0 0
-0.030966274 0.45987418 0.74459589 0 0 0 0
-0.36069933 -0.86672765 0.52279264 0 0 0 0
0.095153302 0.61736256 0.49265951 0 0 0 0
-0.2505188 0.5478704 0.49128228 0 0 0 0
-0.46874812 -0.029174149 -0.47256678 0 0 0 0
-0.23941515 0.34765768 0.77270228 0 0 0 0
0.30139855 0.092376538 0.75532043 0 0 0 0
0.63981485 0.57307005 0.17139271 0 0 0 0
0.57892936 0.50190741 -0.56547481 0 0 0 0
-0.63928849 0.69439733 -0.39731842 0 0 0 0
0.32327607 0.69025397 0.60506779 0 0 0 0
0.69730783 0.032653622 0.28623432 0 0 0 0
-0.45533174 0.85479403 0.21284214 0 0 0 0
0.73147017 0.43341818 0.48162538 0 0 0 0
0.76600897 0.051466674 -0.24025178 0 0 0 0
0.38957518 0.74524462 0.30973366 0 0 0 0
0.087943301 -0.27456188 0.78258461 0 0 0 0
0.19100061 0.10942064 0.73400623 0 0 0 0
0.08758346 -0.71252465 0.734375 0 0 0 0
0.73224783 -0.057731666 -0.15863445 0 0 0 0
0.3141363 0.55389285 0.46116647 0 0 0 0
1.1012346 0.2828708 -0.49753255 0 0 0 0
0.87505102 0.01466168 -0.30736369 0 0 0 0
0.48146901 0.43383065 0.63666415 0 0 0 0
-0.22941025 -0.36019951 0.39173982 0 0 0 0
-0.23499003 -0.32740909 0.25812685 0 0 0 0
-0.67458344 0.43378654 0.31773689 0 0 0 0
-0.60635692 0.53871918 0.25131735 0 0 0 0
-0.61863214 0.53710812 -0.51463318 0 0 0 0
-0.13351342 0.64619923 0.45289576 0 0 0 0
-0.71825683 0.060014449 -0.41025344 0 0 0 0
0.073437668 0.95063496 0.02471387 0 0 0 0
-0.78850317 -0.12924057 -0.26804659 0 0 0 0
0.53791672 -0.090174817 -0.33783692 0 0 0 0
-0.092348464 0.46731448 0.65112734 0 0 0 0
-0.49473202 0.35726091 0.71156603 0 0 0 0
-1.1232601 0.30030769 -0.42586592 0 0 0 0
1.1484661 0.036696307 -0.37113324 0 0 0 0
-0.26059926 -0.34761301 0.51150399 0 0 0 0
-0.85050398 0.27096692 -0.0055564735 0 0 0 0
-0.056236818 0.80871409 -0.5963102 0 0 0 0
0.79315883 0.3706736 -0.35159597 0 0 0 0
0.23503235 0.52511138 0.51431 0 0 0 0
-0.023452705 -0.80923599 0.35186318 0 0 0 0
0.84483671 0.28532085 -0.0497673 0 0 0 0
-0.1845099 0.95263147 -0.037990399 0 0 0 0
0.20066054 0.61631173 0.45217529 0 0 0 0
-1.1113716 0.4889254 -0.36101624 0 0 0 0
0.46526539 0.40496555 0.72396713 0 0 0 0
-1.2265681 0.085316047 -0.41047373 0 0 0 0
-0.047343999 0.91931391 0.1732237 0 0 0 0
-0.68221515 0.034119394 0.46313995 0 0 0 0
-0.7944954 -0.1305113 -0.24175973 0 0 0 0
-0.25492638 -0.34457299 0.085541449 0 0 0 0
1.0782052 0.34653923 -0.49344972 0 0 0 0
-0.16441312 0.60704499 0.47433609 0 0 0 0
0.42559502 -0.11240768 -0.4033516 0 0 0 0
0.16581777 0.7995593 0.31805125 0 0 0 0
-0.79390687 -0.12744661 -0.28651342 0 0 0 0
-0.59732437 0.24479952 0.67410576 0 0 0 0
0.021002378 0.97071856 -0.031592689 0 0 0 0
0.031906452 -0.5882889 0.74047446 0 0 0 0
0.76804668 0.12909454 -0.23890902 0 0 0 0
0.50465339 0.56571043 0.71680242 0 0 0 0
0.26825976 0.54911149 0.48325974 0 0 0 0
-0.31465188 -0.63493311 0.49900457 0 0 0 0
-0.01081489 -0.25661123 -0.56045747 0 0 0 0
0.050401457 -0.79575932 0.65048754 0 0 0 0
-0.45068437 0.22505277 0.78359097 0 0 0 0
-0.64883548 -0.058748297 0.15700822 0 0 0 0
-0.029580686 0.27170569 0.78062916 0 0 0 0
0.5761646 0.79877961 -0.083031297 0 0 0 0
-0.775518 0.18179449 0.52956164 0 0 0 0
-0.0078819962 -0.57637 0.3228808 0 0 0 0
-0.80066872 0.18720539 -0.39227891 0 0 0 0
0.91425782 0.26729229 -0.28908631 0 0 0 0
-0.37862456 0.59869188 0.39960638 0 0 0 0
0.80472237 0.4702535 -0.30141908 0 0 0 0
-0.82846117 0.26763457 -0.21030921 0 0 0 0
-0.44660673 -0.1282578 0.24779056 0 0 0 0
-0.81832242 0.29512829 0.12633958 0 0 0 0
-0.39139321 0.63232827 -0.5852142 0 0 0 0
-0.48868111 0.84449679 0.11807694 0 0 0 0
-0.13724411 0.61698782 0.77957612 0 0 0 0
0.78677648 0.44062597 0.5593701 0 0 0 0
-0.047952548 -0.21494877 -0.60863107 0 0 0 0
-0.099423349 -0.077883691 -0.69511515 0 0 0 0
-0.028495932 -0.19242741 -0.65915483 0 0 0 0
-0.18401372 0.88510096 0.24250218 0 0 0 0
-0.53271377 -0.14733775 -0.13972968 0 0 0 0
-1.1348289 0.046930075 -0.45518428 0 0 0 0
-0.025337234 0.60766059 0.52836055 0 0 0 0
0.31942064 0.44378948 0.71745074 0 0 0 0
0.12474617 -0.66709709 0.36097977 0 0 0 0
0.49174669 0.56875449 0.36706179 0 0 0 0
0.40618184 -0.18024623 0.07889083 0 0 0 0
-0.045262963 -0.41003269 -0.064667337 0 0 0 0
0.0078791073 0.96116012 -0.19893555 0 0 0 0
-0.032789383 -0.22008833 -0.60924172 0 0 0 0
-0.27058834 -0.72187817 0.38114041 0 0 0 0
0.96243131 0.044965301 -0.35470471 0 0 0 0
-0.71060252 0.098046452 0.37837961 0 0 0 0
0.57076645 0.1399107 -0.53807443 0 0 0 0
-0.69481814 0.6371538 -0.39331931 0 0 0 0
0.42342487 0.56081253 0.4141328 0 0 0 0
-0.13042508 0.94269216 -0.2092012 0 0 0 0
0.66514307 0.66042179 0.0841939 0 0 0 0
-0.49425304 0.85555261 0.052417092 0 0 0 0
0.65705734 0.2324999 0.63634318 0 0 0 0
0.32040542 -0.91994977 0.41794541 0 0 0 0
0.33661869 0.66455054 0.79267853 0 0 0 0
-0.6443789 0.73538518 -0.23319896 0 0 0 0
-0.16172785 0.061509594 0.74877048 0 0 0 0
-0.2676692 -0.25422806 -0.39639652 0 0 0 0
0.74333727 0.65720129 -0.11465731 0 0 0 0
-0.24645264 -0.13823922 0.62408435 0 0 0 0
-0.36335522 0.79768068 0.28308424 0 0 0 0
-0.041175187 0.59680653 0.5314517 0 0 0 0
-0.26576677 -0.50051165 0.64200234 0 0 0 0
0.40209168 0.93496394 -0.0677476 0 0 0 0
-0.67658621 0.14219002 -0.46297061 0 0 0 0
-0.47379184 0.56351531 -0.60282898 0 0 0 0
-0.55561745 -0.10759389 0.13650413 0 0 0 0
-0.43108544 0.50695682 0.76820958 0 0 0 0
-0.55895478 0.43481225 0.72908002 0 0 0 0
0.43482357 0.57926029 0.40098894 0 0 0 0
-0.55258614 0.22357067 -0.58582145 0 0 0 0
-0.77497983 -0.12936418 -0.26322734 0 0 0 0
-0.16563854 -0.027599052 -0.69416827 0 0 0 0
-0.23603225 0.91452163 -0.28489506 0 0 0 0
0.16534583 0.47443193 0.59869003 0 0 0 0
0.20682736 -0.53272587 0.37831661 0 0 0 0
-0.11519179 0.35975692 -0.80629981 0 0 0 0
-0.8285774 -0.015625 -0.28100494 0 0 0 0
-0.1522373 0.93017888 0.067776382 0 0 0 0
0.109895 0.94307071 -0.22229284 0 0 0 0
0.36505169 -0.22255078 0.045975469 0 0 0 0
-0.13892296 0.19468448 0.71065271 0 0 0 0
0.00090306997 0.91078925 0.23577997 0 0 0 0
0.78478891 0.39997986 0.18954244 0 0 0 0
0.48157394 0.70052761 0.29649055 0 0 0 0
-0.025533319 0.78300393 0.37798977 0 0 0 0
-0.21156171 -0.64527422 0.37216893 0 0 0 0
-0.52307886 0.50559312 0.45393714 0 0 0 0
-0.75804365 0.60106283 0.091518551 0 0 0 0
0.24817957 0.097030565 0.7647227 0 0 0 0
-0.54109764 0.32715878 0.68098551 0 0 0 0
0.30529708 0.0093332231 -0.65130216 0 0 0 0
-0.14003453 0.47014233 0.60507625 0 0 0 0
-0.47039664 0.20124984 0.74497169 0 0 0 0
0.029269578 0.033497769 0.73748052 0 0 0 0
-0.2816475 -0.56049007 0.62720501 0 0 0 0
1.0998353 0.45404771 -0.48785171 0 0 0 0
0.65498096 -0.054868527 0.16047207 0 0 0 0
1.2339953 0.25114462 -0.44628328 0 0 0 0
-0.2275672 0.91728806 0.080467224 0 0 0 0
-0.34109873 0.86576492 0.23672761 0 0 0 0
0.38334674 0.59738308 0.39952832 0 0 0 0
0.12005478 -0.89186949 0.67185694 0 0 0 0
-0.43380061 -0.12601088 0.5517177 0 0 0 0
0.030133098 -0.15434305 -0.68208265 0 0 0 0
-0.33015567 -0.27585799 -0.19105478 0 0 0 0
0.78402412 0.29559052 -0.38712481 0 0 0 0
0.089656167 -0.4337956 0.19655797 0 0 0 0
1.0185806 0.17612492 -0.37103763 0 0 0 0
-0.79247129 0.3877303 -0.35793266 0 0 0 0
-0.20630497 0.88752598 -0.45409122 0 0 0 0
0.6234771 -0.090957642 0.076689616 0 0 0 0
