# .PCD v0.7 - Point Cloud Data file format
VERSION 0.7
FIELDS x y z normal_x normal_y normal_z curvature
SIZE 4 4 4 4 4 4 4
TYPE F F F F F F F
COUNT 1 1 1 1 1 1 1
WIDTH 674
HEIGHT 1
VIEWPOINT 0 0 0 1 0 0 0
POINTS 674
DATA ascii
0.098422542 -0.94512099 0.6151334 0.11350012 -0.86650091 0.48610047 0
-0.62408489 0.49048936 -0.50247598 -0.57500648 0.24080274 -0.78190893 0
0.82710594 0.011678874 -0.35971323 -0.27848932 -0.25969005 -0.92466462 0
0.67405486 -0.011645671 0.16928947 0.71170098 -0.66090089 0.23810031 0
-0.36415815 -0.23341183 -0.16850993 -0.61561894 -0.78112406 -0.10420321 0
-0.81893641 0.2530691 -0.052925602 -0.97126067 -0.22619085 -0.074097 0
0.15702629 0.35758191 -0.75665188 0.22929612 0.036199387 -0.97268343 0
0.91968787 0.19070098 -0.4124915 -0.42569232 0.029599467 -0.90438372 0
-0.36653426 -0.18866871 0.26873207 -0.63450915 -0.74691069 0.19880284 0
0.23839299 -0.15936291 -0.53991765 0.39540356 -0.72750652 -0.56070501 0
0.92541504 0.26466781 -0.31440741 0.69179606 -0.53569698 0.48419723 0
-0.1469731 -0.75934893 0.37737119 -0.081400439 -0.21640117 -0.97290516 0
-0.90078396 0.26757729 -0.2715103 -0.68152839 -0.47681987 0.55512315 0
-0.81978738 0.40209091 -0.14934666 -0.96250653 0.24990171 -0.10550072 0
0.18099833 -0.29113615 -0.34841949 0.30721137 -0.89983326 -0.30971149 0
-0.87694448 -0.044042867 -0.20676246 -0.37707943 0.59286755 0.71156114 0
-0.53382486 -0.13512735 -0.099454008 -0.42102236 -0.90704805 -0.0020001063 0
0.1307344 0.3852458 -0.76181877 0.22929606 0.03619938 -0.97268337 0
0.71113217 0.34711599 -0.45758954 0.69660461 0.028100183 -0.7169047 0
-0.33331954 0.18940571 -0.68379098 -0.37899119 -0.16329619 -0.91087878 0
0.0834767 0.44331893 0.80799693 -0.3638047 0.17330223 0.9152118 0
0.54745406 -0.050791901 0.39824498 0.53328258 -0.83457273 0.1381955 0
-0.74518603 0.042989176 0.050131351 -0.80071944 -0.59261441 0.087502122 0
-0.37494275 0.67354411 0.70843375 -0.5583902 0.8288855 0.033899408 0
0.59526867 0.17906764 0.6603865 0.47100657 -0.21900305 0.85451192 0
0.52616274 0.021146864 0.63827705 0.42000318 -0.47120357 0.77560592 0
-0.68386424 -0.075839423 -0.28894538 0.041499037 -0.83598077 -0.54718739 0
0.51064545 -0.068516359 0.55289859 0.43179795 -0.82109612 0.3732982 0
1.242784 0.096955299 -0.41293374 0.45119473 -0.13279843 0.88248962 0
0.58939546 -0.0076458044 0.56733835 0.54308224 -0.65787846 0.52178293 0
-0.43594271 0.04765309 0.65594882 -0.4797906 -0.7174859 0.50499004 0
0.24806476 -0.018536078 -0.65167105 0.3860054 -0.42200592 -0.82031143 0
0.26540244 -0.12692533 -0.55907691 0.40249786 -0.64509654 -0.64949661 0
0.12351821 -0.37454218 -0.10109115 0.19820997 -0.96124846 -0.19160964 0
0.95346808 -0.098887756 -0.30366537 0.28120807 -0.95162731 0.12380355 0
-0.13366918 -0.091179743 0.76431286 -0.014099932 -0.079999611 0.99669516 0
1.303592 0.35459036 -0.49787217 0.82913339 0.347514 -0.43791759 0
-0.23676659 0.076524742 -0.69597065 -0.33489192 -0.30689257 -0.89087844 0
0.6405071 0.013195001 0.44211701 0.61208707 -0.78558344 -0.090598091 0
0.82176155 0.30821085 0.035527017 0.99271446 -0.039300568 0.11390166 0
-0.21245831 0.91510111 0.049853366 -0.092100859 0.97640902 0.19530182 0
-0.82618195 0.016079465 -0.3606708 0.27848932 -0.25969005 -0.92466462 0
-0.38195032 0.26281324 0.80977434 -0.31358939 0.023499204 0.94926792 0
-0.27350587 0.89671332 -0.27609214 -0.18169175 0.92725778 -0.3273851 0
0.85986024 0.21379738 -0.27137983 0.71759748 -0.55669814 0.41849855 0
-0.24396549 0.33886665 0.76865327 0.45232797 0.42152604 0.78594863 0
-0.28359526 -0.63678133 0.6322875 -0.75958258 0.048698884 0.64858514 0
0.64167815 -0.019706428 0.23265737 0.6072039 -0.76240486 0.22370145 0
-0.98011202 0.29611441 -0.43463829 0.47442448 0.14870766 -0.86764473 0
-0.81593376 0.24390726 -0.11719498 -0.93441749 -0.3537066 0.041900784 0
0.11563049 0.69074476 -0.6363681 0.2280896 0.55007493 -0.80336338 0
0.24143028 0.3219634 0.77619058 -0.4515748 0.41687679 0.78885603 0
0.22088513 0.53965569 0.59644997 -0.2821857 0.46187654 -0.84085739 0
-0.14358148 0.89198256 0.15198237 -0.099604607 0.9361434 0.33721557 0
-0.17722364 -0.37326345 0.014756971 -0.4805052 -0.87180936 -0.095201023 0
0.62353158 0.093795858 -0.46594769 0.50608957 -0.38759199 -0.77048415 0
-0.33705664 0.36286393 0.77833503 -0.013899793 0.85338724 0.52109224 0
0.10744517 0.53100985 0.78196073 -0.77630228 0.42570126 0.46490139 0
0.58491772 -0.090429284 0.10625562 0.48452497 -0.86474466 0.13210681 0
0.10540678 -0.14842196 -0.60884392 0.2205952 -0.66728544 -0.71138453 0
-0.2033388 -0.12860252 -0.59028959 -0.3269904 -0.65368074 -0.68247992 0
0.41897804 0.75554168 -0.44594643 0.40739837 0.67549723 -0.6145975 0
0.74872625 0.27016297 0.59944648 0.61210132 -0.33460072 0.71650153 0
0.84121609 0.076110572 -0.37677434 -0.28290203 -0.10570075 -0.95330679 0
-0.53415912 -0.11420999 -0.23349109 -0.32940468 -0.911713 -0.24550352 0
-0.71665329 0.28752059 0.62893116 -0.49697202 -0.3142823 0.80885434 0
-0.4103511 0.044862431 0.66932333 -0.34070501 -0.79001164 0.50970751 0
-0.95789766 0.32727799 -0.41693762 0.48198909 0.15319651 -0.86268038 0
-0.64859855 0.16015998 -0.48015741 -0.578982 -0.23119284 -0.78187579 0
0.51922083 0.33928505 0.69326472 -0.072896846 -0.72396868 0.68597037 0
-0.21677485 -0.27866518 0.60872841 -0.90101886 0.25610536 0.35010731 0
-0.74442691 0.10536919 0.23407331 -0.871732 -0.47211733 0.1311048 0
-0.3674551 0.015804598 0.63984883 -0.17389451 -0.86967242 0.46198538 0
0.13217302 -0.35752267 -0.17684527 0.20269424 -0.94687301 -0.24969287 0
-0.89915085 0.042721249 -0.39386496 0.38559255 -0.21989577 -0.89608264 0
-0.2808885 0.21439911 -0.71123677 -0.4090879 -0.14329578 -0.90117341 0
-0.76348037 0.5905121 -0.032482058 -0.85012692 0.52321661 0.059401885 0
-1.0346662 0.2708711 -0.46593907 0.42600343 0.030500246 -0.90420723 0
-0.76193446 0.26718482 -0.40929186 -0.63520324 -0.026100133 -0.77190399 0
0.70493156 0.65816778 -0.25022915 0.71532351 0.67252213 -0.18980622 0
0.72089958 0.50485504 0.20164309 0.6091103 0.61561042 0.50000846 0
-0.66427153 0.026154874 0.31693682 -0.6902957 -0.70579565 0.15919901 0
-0.15833692 0.16501713 -0.74556321 -0.23509952 -0.19699958 -0.95179802 0
0.14173403 0.50047457 -0.73512369 0.24730951 0.38851494 -0.88763404 0
-0.75119752 0.61690873 -0.075567961 -0.85916865 0.5061816 0.074897267 0
-0.81559438 0.17305681 -0.2514368 -0.75514138 -0.45502493 0.4719258 0
-0.34765819 0.14147148 0.80024576 -0.098104239 -0.62992716 0.77043331 0
-0.73490566 0.033583183 -0.16686942 -0.94600755 -0.28640231 0.15180123 0
-0.072590187 -0.37835073 -0.13577832 -0.20861143 -0.95805258 -0.19651078 0
1.1601481 0.39371771 -0.39020169 0.24831733 -0.50853544 0.82445747 0
0.23370501 0.055479452 0.74490368 0.21449596 -0.02179959 0.97648162 0
1.2243493 0.25553414 -0.44228986 -0.93663675 -0.1728068 0.30471194 0
1.252516 0.14026226 -0.50843966 0.0084001832 -0.21020459 -0.97762132 0
0.1439206 -0.74363369 0.37457195 0.17939547 -0.12829676 -0.97537547 0
0.75371414 0.06081976 0.058716785 0.88688022 -0.4385902 0.14519675 0
-0.45292187 -0.13730621 -0.29348168 -0.48658782 -0.80067992 -0.34949124 0
-0.96820104 0.095721811 -0.43279976 0.43442234 -0.065203354 -0.89834619 0
1.0108678 0.36048189 -0.43787923 -0.47691831 0.37691441 -0.79403043 0
0.19397973 -0.31927949 -0.24964324 0.30540138 -0.92400414 -0.23010102 0
0.60421628 0.48378006 -0.51705533 0.50501174 0.26470619 -0.8215192 0
0.36287338 0.7029919 -0.52877569 0.35400125 0.61350214 -0.70590246 0
-0.32550961 -0.87657517 0.53274482 -0.91544753 -0.25551325 0.31091616 0
-0.27125609 -0.16798969 0.48933271 -0.45381349 -0.75292242 0.47661421 0
0.45872274 0.86202043 -0.18723442 0.37919095 0.90597832 -0.18819551 0
0.28067181 -0.53216463 0.46485609 0.90757549 0.14299615 -0.39478937 0
0.44153851 0.79382724 0.17631046 0.47819546 0.75349283 0.45119572 0
-0.31393933 -0.78517002 0.59160489 -0.88207418 -0.029499138 0.47018617 0
0.15636057 0.17004536 -0.74709213 0.23509949 -0.19699956 -0.95179796 0
-0.06522727 -0.93852627 0.45638862 -0.058199562 -0.80829388 -0.5858956 0
-0.039193645 -0.9277935 0.64680636 -0.063601427 -0.76921719 0.63581419 0
0.033916648 -0.76881963 0.36290112 0.04839899 -0.22359532 -0.97347963 0
0.27497181 -0.41156325 0.55485541 0.96881932 0.24500489 0.036900736 0
0.22331846 -0.81974316 0.39768514 0.11069734 -0.19379535 -0.97477663 0
-0.77313381 0.44834754 0.16131148 -0.88429779 0.30939919 0.34969911 0
0.60277307 0.024194794 0.5890184 0.51048499 -0.57928288 0.6354813 0
-0.57313544 0.32524496 0.59302706 -0.85359728 0.22879924 0.46799845 0
-0.525783 0.67085046 -0.46321887 -0.46168473 0.62987918 -0.62457937 0
0.67665768 0.046250101 0.52354711 0.71450651 -0.62510568 0.31420285 0
-0.60060412 0.00045448961 0.56589091 -0.54291171 -0.65831411 0.52141118 0
-0.27370739 -0.24233022 0.3806895 -0.82358992 -0.53459352 0.18949771 0
-1.251382 0.19594537 -0.41358185 0.045598365 0.024299128 0.99866426 0
-0.55957371 0.58107579 0.28340384 -0.61148638 0.55548751 0.56348735 0
-1.0566025 0.31521249 -0.40512246 -0.48012573 0.12290659 0.86854661 0
-0.26201066 -0.36898199 0.56346899 -0.90877366 0.32169071 0.26579231 0
-0.76192212 0.56807822 -0.26591852 -0.86750716 0.41640338 -0.27210224 0
-0.065135077 0.64592731 -0.67349094 -0.097996101 0.56337756 -0.8203674 0
1.2896955 0.39505109 -0.47290581 0.68770981 0.6063087 -0.3993057 0
0.02598853 -0.41151002 0.014077842 0.075202554 -0.9818334 -0.17420591 0
0.15059328 0.10193132 0.64962226 -0.63036573 -0.5833683 0.51217216 0
-0.50936794 -0.026758023 -0.43338522 -0.50080788 -0.67031062 -0.54760861 0
-1.0846659 0.28261566 -0.48447117 0.35091424 0.026301067 -0.93603808 0
0.11526884 -0.13630112 -0.61715555 0.2205952 -0.66728544 -0.71138453 0
0.53165472 0.47672716 -0.57029212 0.48840588 0.17780213 -0.85431033 0
-0.46141317 0.86513865 -0.11653356 -0.39891174 0.9157269 -0.048101414 0
0.74466562 -0.020178238 -0.18342109 0.52581751 0.50721693 0.68282276 0
-0.68798006 0.66823095 -0.27965227 -0.71982116 0.66951966 -0.1833054 0
-1.0973099 0.44386721 -0.43709666 0.35121125 0.65472096 -0.66932142 0
0.28616652 -0.27096969 0.25248802 0.7153002 -0.66850019 0.20360006 0
0.90312785 0.019646423 -0.3126663 0.047900826 0.51770902 0.85421479 0
0.17507246 -0.41317987 0.29251656 0.7176832 -0.54728723 -0.43058991 0
-0.10037956 -0.0046342574 -0.70896131 -0.24311127 -0.42251959 -0.87314039 0
-0.67212206 0.60579777 0.13182503 -0.54901022 0.66841239 0.50180936 0
0.85230303 0.35887402 -0.2729874 -0.58449292 0.80289012 0.11719857 0
-0.605968 0.76202989 -0.19661042 -0.66478616 0.74468446 -0.059198767 0
0.49954602 0.56845689 0.35782877 0.55631387 0.61181527 0.56231403 0
0.80770385 0.19474047 0.040766876 0.98162806 -0.18270522 0.055001575 0
-0.58225518 0.2712616 0.59723234 -0.87314123 0.079003736 0.48102269 0
0.43142369 -0.17848387 0.093185462 0.50589639 -0.85409391 0.12079915 0
-0.5282954 -0.12562872 -0.19940341 -0.4117066 -0.88081408 -0.23380372 0
-0.16141731 -0.33014452 -0.24923231 -0.30540136 -0.92400402 -0.23010099 0
-0.67876261 0.63677406 -0.35514167 -0.69389689 0.54319763 -0.47269791 0
-0.75277692 0.12827468 0.4940998 -0.81359583 -0.47669756 0.33289826 0
-0.083935015 -0.35658601 -0.21956155 -0.20269425 -0.94687307 -0.2496929 0
-1.2226105 0.41366816 -0.40204111 -0.34578508 0.010099563 0.93825948 0
-0.38958326 0.41735128 0.75426704 -0.22360185 0.41840342 0.88030726 0
-0.49842665 0.44609845 0.72828352 -0.038699232 -0.46969068 0.88198245 0
-0.59351325 0.66854131 0.15069048 -0.66941994 0.57241708 0.47351414 0
0.59458596 -0.017816721 0.54531628 0.57128656 -0.74738234 0.339192 0
-0.10680663 -0.71546882 0.36355448 -0.15199554 -0.16699511 -0.97417152 0
-0.61286348 0.74288654 -0.26548213 -0.65610409 0.73020458 -0.19060118 0
0.093346909 -0.96066022 0.58342195 0.12349836 -0.92528778 0.35859525 0
-0.60989773 0.48414239 -0.51344573 -0.50501174 0.26470616 -0.82151914 0
0.31488201 -0.88808501 0.55527061 0.9132117 -0.32620421 0.24420315 0
0.30376962 0.7041229 0.34972739 0.25360823 0.65432113 0.71242303 0
0.19043794 0.92918247 -0.14935949 0.089398995 0.99508876 -0.04249952 0
0.96217984 0.16145442 -0.43465835 -0.43442228 -0.065203346 -0.89834613 0
0.7156958 0.016684433 0.10965358 0.77684116 -0.59993184 0.19131015 0
-0.42463568 0.61113203 0.6094479 -0.40570229 0.75090432 -0.52110296 0
0.074042402 -0.82692581 0.38617003 0.13680641 -0.39521852 -0.90834254 0
0.15351591 0.33104104 0.6986444 -0.69178027 0.39608875 0.60378283 0
0.049975432 -0.34534657 -0.27800426 0.072200939 -0.96301252 -0.25960338 0
-0.22689961 0.92772853 -0.09875194 -0.16350718 0.98564333 -0.042101856 0
-0.37083548 -0.179593 -0.35757172 -0.59549183 -0.74868971 -0.29129598 0
-0.59805453 0.76912463 -0.19622752 -0.66478616 0.74468452 -0.059198767 0
0.30139506 -0.059932582 0.70057607 0.40130112 -0.39310107 0.82730222 0
0.18313284 -0.38856471 0.22633998 0.68199241 -0.73029184 -0.039499562 0
-0.095195174 -0.9662931 0.52399707 -0.09080144 -0.98441559 -0.15060239 0
0.53686994 0.2181582 -0.57751274 0.56311536 -0.21830595 -0.79702169 0
0.19712758 0.66847605 -0.62847936 0.22808962 0.55007493 -0.80336338 0
0.57016677 0.45087627 0.72614914 0.20589635 -0.20159644 0.95758313 0
0.79162484 0.22857457 0.42739904 0.93568164 -0.2640948 -0.23399542 0
0.2276053 -0.25627142 -0.38838425 0.41998634 -0.82837313 -0.37068793 0
-1.0115125 0.11190473 -0.37584564 -0.48051277 -0.065701745 0.87452316 0
-0.7167592 0.66002887 -0.088404477 -0.75890285 0.64310241 0.10240038 0
-0.11707792 -0.90457326 0.66037583 -0.15969723 -0.6813882 0.71428758 0
-0.069351919 -0.34633857 0.74419171 -0.15060051 -0.02400008 0.98830336 0
-0.25393045 -0.36706591 0.58877504 -0.90877366 0.32169065 0.26579228 0
-0.17070012 0.29088616 0.73432797 0.70412117 0.22550675 0.67332017 0
-0.24758831 -0.42194524 0.6376999 -0.77689761 0.17949945 0.60349816 0
0.82005727 0.25927299 0.035567708 0.9839105 -0.17650189 0.027700298 0
0.25914386 0.12360414 -0.70092005 0.32460779 -0.23720567 -0.91562188 0
-0.74559104 0.12658548 0.41396648 -0.86311585 -0.48020881 -0.15630284 0
-0.57239807 0.26447564 0.61623865 -0.87316495 0.07899683 0.48098069 0
-0.50790501 0.5732258 -0.54079723 -0.4424859 0.41728666 -0.79377466 0
0.29440194 0.59199142 0.59554738 -0.14939682 0.330293 -0.93198013 0
-0.44614404 0.30119324 0.77354354 -0.78682977 0.32491228 0.52471989 0
-0.13397539 0.92841965 -0.20638505 -0.097400643 0.98160642 -0.16420107 0
-0.58054751 -0.051971875 -0.34613302 -0.29260615 -0.82161725 -0.48921028 0
-0.9674322 0.020476097 -0.34313449 -0.5494861 0.27289307 0.78968 0
0.53923357 0.66915917 0.21860895 0.60131854 0.56051731 0.56941754 0
-0.35155097 -0.22470039 0.18623777 -0.63458693 -0.76068425 0.13659717 0
-1.2565452 0.17295371 -0.41303664 -0.20140055 0.0035000099 0.97950268 0
-1.1234049 0.050840072 -0.41299939 0.595411 0.80241489 0.040200744 0
1.1275129 0.17287421 -0.49715939 -0.24281009 -0.064302675 -0.96794027 0
0.21276969 0.27336058 -0.74339753 0.31959435 -0.13079768 -0.93848348 0
-0.54181105 -0.059312407 0.5242908 -0.50548142 -0.85936826 0.077297151 0
0.35074949 -0.24641451 0.051826775 0.65511328 -0.74791515 0.10700215 0
-0.20689099 0.68345445 0.75415409 0.56995827 0.75634474 0.32107651 0
0.40153012 0.48098487 0.61512595 0.33701742 0.80934185 0.48102492 0
0.80444008 0.33718628 0.13293844 0.97361338 0.087401204 0.2108029 0
0.293695 -0.071398705 0.69555455 0.38730681 -0.63001108 0.67311186 0
-0.80022055 0.1902238 0.11045025 -0.96855575 -0.22098991 0.11429477 0
0.034352243 0.77368325 0.33990502 0.048601773 0.69822556 0.71422619 0
-0.6150341 0.52395749 -0.4958086 -0.55961394 0.37190926 -0.74061853 0
-0.030747525 0.92451191 0.063039452 -0.029598551 0.98155195 0.18889076 0
0.29704639 0.096482269 0.7492823 -0.070600279 -0.64970255 0.75690299 0
0.21446462 -0.92079443 0.61314803 0.28009805 -0.70689505 0.64949548 0
-0.18048359 0.52401918 -0.71402055 -0.24730949 0.38851494 -0.8876341 0
-0.17023519 -0.78717178 0.69715095 -0.35319129 -0.18149553 0.91777742 0
0.097161517 0.50875276 0.78455651 -0.78621507 0.43630835 0.4376083 0
-0.99529576 0.19528474 -0.36447626 -0.35208762 9.9996476e-05 0.93596709 0
0.45240507 0.45840529 -0.62085772 0.46562085 0.27141213 -0.84233767 0
-0.47381699 0.36909387 0.72357839 0.0048000636 -0.76050997 0.64930856 0
0.052180108 -0.36278406 -0.21270144 0.072200939 -0.96301252 -0.25960338 0
-0.96012831 0.19686359 -0.43240011 0.45429522 0.031599667 -0.89029056 0
0.27229965 -0.40768734 0.50864965 0.96115702 0.22339003 -0.16209276 0
0.24690211 0.55118644 0.80269152 0.2778962 -0.27739617 0.91968745 0
-0.20679174 -0.74119705 0.38326475 -0.16190033 -0.10870023 -0.980802 0
0.26291898 -0.87462944 0.4209272 0.14889416 -0.44678247 -0.88216549 0
0.24897288 -0.54273421 0.41049951 0.64937598 -0.021199215 -0.76017189 0
-0.19002037 -0.1932835 0.64662725 -0.87919879 -0.31059957 0.36129951 0
0.45866695 0.11744507 0.71159172 0.5367372 -0.48963392 0.68714756 0
0.5671159 0.51469314 -0.53077781 0.46039891 0.32469922 -0.82619804 0
0.14975174 0.22680628 -0.75632113 0.24590822 -0.10180341 -0.96393216 0
0.23945898 0.65898991 -0.61989176 0.34299967 0.51799953 -0.7835992 0
-0.11811455 -0.95483828 0.48960158 -0.065198191 -0.91537464 -0.39728904 0
0.6848951 0.093248196 0.56463522 0.63840902 -0.46690652 0.61190856 0
-0.96718138 -0.040812954 -0.39778751 0.3587141 -0.44631755 -0.81983221 0
0.0047883098 -0.39659545 -0.077913105 0.073601872 -0.9755249 -0.2072053 0
-0.035011012 -0.42630798 0.10763978 -0.077696495 -0.98405564 -0.15999277 0
0.16721565 0.84007859 0.24516408 0.11970215 0.85811532 0.49930894 0
-1.0817806 0.3589108 -0.38331753 -0.41629416 -0.65309083 0.63259113 0
0.28847662 -0.30080569 0.06075459 0.6580866 -0.75168473 0.043499116 0
-0.51073927 0.11743666 0.65732247 -0.70622861 -0.49051988 0.5105207 0
-0.79641885 0.32645807 0.44605985 -0.94648486 0.12819795 -0.29619527 0
-0.42349529 -0.059680838 0.63153744 -0.39100751 -0.68671316 0.61281174 0
0.67558694 0.69369614 -0.23412852 0.66472471 0.72072685 -0.19670734 0
-0.11641556 -0.43004924 0.73480797 -0.2144094 0.0014000613 0.9767428 0
0.57436222 0.1859262 0.60254937 0.84762633 -0.23090716 0.47771484 0
-1.1359363 0.33850262 -0.43828386 -0.27199519 -0.71818727 0.64048868 0
-0.3117047 0.91379213 -0.095621407 -0.16350719 0.98564339 -0.042101856 0
0.43712243 0.12122934 0.73112381 0.53529423 -0.49559468 0.68399268 0
0.17812076 -0.080652654 -0.64204866 0.3295041 -0.54310673 -0.7723096 0
-0.3488948 -0.25064471 -0.0043435097 -0.66341829 -0.74752069 0.033000916 0
-0.79286557 0.35731533 0.46283215 -0.87469906 0.3454996 -0.3398996 0
0.051774971 0.46439591 0.71709228 -0.70953417 0.70453393 -0.013900669 0
0.26811782 -0.25497267 0.369317 0.82358992 -0.53459352 0.18949769 0
1.1999254 0.26203853 -0.46221876 0.46161377 0.14930443 0.87442613 0
-0.77625215 0.33505321 0.60317564 -0.65740359 -0.26420146 0.70570385 0
1.0341725 0.024059277 -0.44958797 -0.372987 -0.18469357 -0.90926838 0
-0.27851668 0.0020049997 0.7298854 -0.26479948 -0.087799825 0.960298 0
0.28291816 0.78336596 -0.48559502 0.28691155 0.73302948 -0.61672479 0
-0.66523498 -0.042255841 -0.33762917 -0.18020552 -0.69912148 -0.69192129 0
0.45079601 0.719935 -0.46399233 0.40739834 0.67549717 -0.6145975 0
-0.70806342 0.53911483 -0.40515757 -0.66110253 0.4139016 -0.62580252 0
0.2241908 -0.13206625 -0.57721746 0.31220111 -0.66800231 -0.67550236 0
-0.16536598 -0.7452814 0.37748063 -0.11689387 -0.098494835 -0.98824823 0
0.27993402 -0.54778302 0.62170213 0.86924541 0.13310696 0.47612488 0
0.10777609 -0.92876065 0.63615644 0.13409953 -0.75309736 0.64409775 0
-0.64851731 0.67335939 0.063636079 -0.62058347 0.69018161 0.37219009 0
0.46339276 0.27225545 0.75993043 0.81948519 0.19309653 0.5395903 0
-0.74780923 0.62329686 -0.097332753 -0.771514 0.63621157 -0.0010000182 0
-0.37234116 -0.22065569 -0.21578506 -0.61561906 -0.78112411 -0.10420322 0
-0.2218796 -0.31137866 -0.23481226 -0.4090969 -0.8903932 -0.19959849 0
0.87807512 0.15759547 -0.32576165 0.25629735 -0.17189823 0.95119023 0
0.40970841 0.65954524 0.33799213 0.36091465 0.61012471 0.70532858 0
-0.15072472 0.15708295 0.75777787 0.16409473 -0.16189481 0.97306883 0
-0.8135587 0.22372349 -0.033826426 -0.97126067 -0.22619082 -0.074097 0
-0.014584673 0.076864235 0.74421257 0.021799732 -0.030799622 0.99928772 0
-0.44476309 0.84021831 -0.2934804 -0.36562118 0.86995041 -0.33091918 0
0.25470874 -0.61889911 0.66275567 0.64360976 0.041800637 0.76421154 0
0.27469575 -0.29114002 0.22310218 0.71688884 -0.67568946 0.17179734 0
-0.43587828 -0.029729981 0.6524688 -0.39379635 -0.61149442 0.68629372 0
-1.0809752 0.38086423 -0.46626949 0.41389555 0.36489612 -0.83399111 0
-0.41539791 -0.15463732 -0.32404253 -0.6346209 -0.71992373 -0.28100926 0
0.1387383 0.89602995 0.1421769 0.099604636 0.93614352 0.33721566 0
0.51824635 0.25273737 -0.5970816 0.54018927 -0.17529653 -0.82308364 0
-0.75658596 0.032426164 -0.36748353 -0.20119776 -0.37169588 -0.90628994 0
1.1542045 0.075219356 -0.42983648 -0.73429042 0.67749119 -0.042699449 0
0.76619613 0.16152135 0.27772084 0.90165865 -0.40738133 0.14509334 0
-0.43452647 0.11196413 0.72551215 -0.43428689 -0.56768292 0.69937897 0
0.7892077 0.4858259 -0.25184911 0.97611022 0.17150179 -0.13340139 0
0.15955192 -0.22814205 -0.48980987 0.31470233 -0.80700594 -0.49970374 0
0.21189907 0.60756439 -0.66463906 0.24119966 0.5370993 -0.80829889 0
0.80763245 0.39029944 -0.25511047 0.92595643 0.30358571 -0.22458944 0
0.79441506 0.24597417 0.21610443 0.99148005 -0.078698419 0.10379791 0
-0.28030708 0.30246317 0.81762677 0.15410635 0.20740853 0.96603984 0
-0.7869038 0.28144741 0.28857735 -0.99250156 0.0028000043 0.12220018 0
0.019243132 -0.17287727 -0.59989053 0.085196994 -0.76707298 -0.63587767 0
-0.67557669 0.55261755 -0.43199825 -0.68141615 0.41550982 -0.60251433 0
-0.23637895 0.57590908 0.48766419 -0.16550174 0.71570748 0.67850715 0
-0.22361055 -0.38212922 0.65706569 -0.81247318 0.19369364 0.54988188 0
-0.26503214 0.010362681 -0.65855289 -0.38600537 -0.42200586 -0.82031149 0
0.36186725 -0.24088499 -0.015778668 0.62992674 -0.77473289 0.054602321 0
-0.48329663 0.44762909 0.72979498 -0.1001028 -0.38031057 0.91942555 0
0.78984684 0.083449855 -0.37405196 0.28350744 -0.2173057 -0.93402451 0
-0.76998919 0.33156949 0.60770565 -0.65740371 -0.26420149 0.70570391 0
0.34017324 0.46618399 0.75317216 0.092500813 -0.22130194 0.97080851 0
0.35567525 -0.24396448 -0.13920785 0.62070531 -0.77780658 -0.098700844 0
0.18864325 -0.23382553 0.65437067 0.90833038 0.14500485 0.39231312 0
0.7638579 0.41576618 0.21552773 0.88538814 0.31689578 0.34009543 0
0.36004007 -0.21524484 0.19466458 0.65680593 -0.72020656 0.22340205 0
0.20733432 -0.94076842 0.58566022 0.21940318 -0.91331327 0.34310499 0
-0.90705031 -0.065133691 -0.35875323 0.3375847 -0.47137859 -0.81476307 0
-0.80207467 0.48589599 0.01681841 -0.96643001 0.22030681 0.1322041 0
0.65302855 0.20463294 0.63737452 0.43669522 -0.22779752 0.87029052 0
0.38281554 0.53458387 0.53557467 0.010599996 0.99949968 -0.029799988 0
0.56261271 0.24792975 0.67698562 -0.26479933 0.014299964 0.96419746 0
-0.63487333 -0.1009502 -0.20669249 0.059202015 -0.99093384 -0.12060411 0
0.23319791 0.80971926 -0.47402707 0.25329927 0.76049787 -0.59789824 0
-0.16804543 -0.32684499 -0.25368398 -0.30540136 -0.92400408 -0.23010103 0
0.3883307 0.45959455 0.7457214 0.17670698 -0.12850508 0.9758386 0
0.48050794 0.82931328 0.058496647 0.45798603 0.8320747 0.31289047 0
0.074731275 0.59818715 0.50040793 0.10259578 0.65197319 0.75126898 0
1.3041099 0.33182472 -0.43210992 0.65550876 0.13940188 0.74220997 0
-0.77079678 0.35970071 0.37857741 -0.92221469 0.37820601 -0.080501273 0
0.066542789 0.71768004 0.39299363 0.056398422 0.70478028 0.7071802 0
1.2724773 0.23270106 -0.52134907 0.008100288 -0.075202674 -0.9971354 0
-0.1559743 0.92470354 -0.21557197 -0.093398221 0.98118132 -0.16899677 0
-0.79963851 -0.058218732 -0.32229605 0.15160131 -0.5626049 -0.81270707 0
0.89926738 0.39606592 -0.29530543 -0.49810204 0.86030352 0.10850044 0
-0.22880736 0.65266341 0.64139819 0.49170181 0.52180201 -0.69710261 0
0.16161588 0.3655532 -0.7552734 0.22929607 0.03619938 -0.97268337 0
-0.94080234 0.36984006 -0.25022334 -0.52240705 -0.061000828 0.85051149 0
0.56472325 0.36056298 0.68824935 0.35780007 -0.038600005 0.93300015 0
0.7057656 0.10937276 0.55338037 0.67292035 -0.41781262 0.61041844 0
-0.24042641 -0.75760883 0.39284191 -0.20200273 -0.057200775 -0.97771317 0
-0.60820746 0.050086454 -0.44551447 -0.43691862 -0.53792292 -0.72093064 0
-0.31877574 0.22483779 -0.69619417 -0.3789911 -0.16329616 -0.91087872 0
-0.64908028 0.067553565 -0.43487921 -0.42271116 -0.51281357 -0.7472198 0
-0.68175596 0.59542447 -0.39571083 -0.66110265 0.41390163 -0.62580252 0
0.1301986 0.89667732 -0.34188902 0.10750159 0.94811404 -0.29920441 0
-0.1860898 -0.95565432 0.54538709 -0.16440313 -0.97211862 0.1672032 0
-0.38535285 0.86822766 -0.27656454 -0.26269463 0.90178156 -0.34319299 0
-0.38495186 0.42724812 0.70377886 -0.19369937 0.77619755 0.59999818 0
0.035674844 0.93801737 -0.038503662 0.027999314 0.9977755 0.060498517 0
0.54107565 -0.016424321 0.5985254 0.44788641 -0.62538105 0.63898057 0
0.75136608 0.13800281 0.41078448 0.86311579 -0.48020878 -0.15630287 0
-0.62894356 0.74155927 -0.19257112 -0.67150187 0.73780197 -0.068800189 0
0.61831808 0.48255843 0.36409914 0.5164265 0.80104113 0.30271554 0
0.47085297 0.29522103 -0.63013327 0.45587733 -0.10889459 -0.88335598 0
0.92407632 -0.10535175 -0.28640658 0.27928829 -0.95416003 0.10759549 0
-0.0043694293 -0.69043499 0.34520248 -0.06669955 -0.17109887 -0.98299354 0
0.96370423 0.31461355 -0.31224203 0.69479352 -0.55999476 0.45129576 0
-0.16277303 0.47800484 0.81023842 -0.34070522 -0.26580408 0.90181381 0
0.30713671 0.70457715 0.70689684 0.21300803 0.97693682 0.014900561 0
0.75753373 0.13650604 0.44605041 0.84998125 -0.50488883 -0.15039669 0
0.74215639 0.044007845 0.07852263 0.88688022 -0.43859026 0.14519677 0
0.21338269 0.91298532 -0.25187516 0.093398221 0.98118126 -0.16899677 0
0.63044316 -0.095991768 -0.12142808 0.4805854 -0.87337351 0.079097599 0
0.028904878 -0.407635 -0.006502863 0.075202562 -0.9818334 -0.17420593 0
0.3474499 0.24482131 0.82039219 0.069600098 0.027300036 0.99720138 0
0.64055628 0.73261762 -0.11881538 0.66308719 0.74828553 0.01959962 0
-0.80383086 0.19624676 0.091500103 -0.96855575 -0.2209899 0.11429478 0
-0.77473944 0.44601226 0.15931711 -0.88429779 0.30939922 0.34969914 0
-0.069750138 0.036566392 -0.7312876 -0.099296883 -0.30279049 -0.94787025 0
0.50235325 -0.079570256 0.38322884 0.48269808 -0.86429667 0.14139944 0
-0.28472534 0.12183077 -0.68857807 -0.40780136 -0.24350081 -0.88000298 0
0.81539047 0.42685434 -0.14058807 0.97226387 0.20869224 -0.10559607 0
-0.60364455 0.744582 -0.2887513 -0.61229318 0.70899212 -0.3498961 0
-0.62013477 0.50661534 0.57581168 -0.39610261 0.88980579 -0.2266015 0
-0.52684456 0.043896846 -0.49648586 -0.55311376 -0.53381336 -0.63961601 0
-0.8114298 0.22834946 -0.15292792 -0.95036608 -0.3109889 0.0094996607 0
0.25707152 -0.82757193 0.40421149 0.14339463 -0.14379463 -0.97916347 0
-0.7326622 0.3712472 0.65067941 -0.5419004 -0.2758002 0.79390067 0
0.19413364 -0.175983 0.64919955 0.88691396 -0.26220411 0.38030598 0
0.0078588305 0.034836758 0.74414253 -0.11870059 0.082400411 0.98950505 0
0.29973233 0.86227614 0.16195455 0.20270325 0.84071332 0.50210798 0
-0.088667348 -0.87520653 0.68851763 -0.12830572 -0.56502527 0.81503636 0
-0.39728916 0.15302381 0.79121244 -0.46339801 -0.52769768 0.71189696 0
-0.13675447 0.6028946 0.75462854 0.83542985 0.49681774 0.23500839 0
-0.76599109 0.11627598 -0.19348478 -0.91787255 -0.36828896 0.14789556 0
-0.045729525 0.93278122 -0.20498933 -0.03030134 0.9858436 -0.16490731 0
-0.81537253 0.27271435 0.080851309 -0.98968655 -0.031699568 0.13969809 0
-0.028600497 0.94102454 -0.084282845 -0.026600407 0.99771535 0.062100954 0
0.21705468 -0.40771982 0.36860099 0.83459926 -0.10529991 -0.54069954 0
-0.59489661 0.55178833 0.27491739 -0.60082132 0.6531232 0.46091637 0
-1.1555878 0.3951686 -0.38793314 -0.24831733 -0.5085355 0.82445759 0
0.79647589 0.27685326 0.54973513 0.75827962 -0.34319079 0.55428511 0
0.11838782 0.85123152 -0.44755012 0.13439861 0.88549089 -0.44479543 0
0.35737342 0.82387757 -0.39029238 0.31719965 0.82449913 -0.4685995 0
0.28805426 0.649427 0.61954325 -0.1313031 0.43701032 -0.88982105 0
-0.30435649 -0.15329561 0.53821778 -0.31369913 -0.9494974 -0.0068999808 0
-0.027534097 -0.38085347 -0.14398125 -0.071897544 -0.9758665 -0.20619293 0
0.63964015 0.72851938 -0.22789738 0.67239183 0.73699111 -0.068799168 0
-0.065752424 0.46344259 0.63929677 0.54070711 0.83941096 -0.055000719 0
0.46319672 -0.1246354 0.2746577 0.50101548 -0.844926 0.18730576 0
0.41982794 0.50044036 -0.62349874 0.42969823 0.31459871 -0.84639651 0
-0.77699846 0.17764488 0.43098733 -0.93460387 -0.30050129 -0.19030082 0
-0.11358847 -0.76159197 0.37254506 -0.1747002 -0.25210029 -0.95180112 0
0.1524868 -0.32018784 -0.29364803 0.31621599 -0.89524531 -0.31391588 0
-0.48683587 0.11166497 -0.57141578 -0.49221489 -0.47381434 -0.73022217 0
-0.33973745 0.60136205 0.59242564 0.027800312 0.40110454 -0.91561031 0
-0.040126789 -0.43663248 0.74595183 -0.027899878 -0.0054999762 0.99959558 0
-0.10992781 -0.76995438 0.72026396 -0.25170347 -0.17080235 0.95261312 0
0.34695506 0.72737485 -0.51556981 0.35400122 0.61350214 -0.70590246 0
0.77903205 0.46873105 0.12782773 0.88910776 0.30740267 0.33910298 0
-0.26842722 0.11110177 0.75434387 0.20029508 -0.60998499 0.76668119 0
-0.47102946 0.72760022 0.22904086 -0.49150187 0.64730251 0.58260226 0
0.031803679 -0.40949029 0.0052042976 0.075202562 -0.98183346 -0.17420594 0
-0.2486053 -0.15221854 0.61731428 -0.43740061 -0.78150111 0.44490069 0
-0.30696124 0.42482558 0.76182717 -0.15330189 0.066900827 0.98591214 0
-0.8974371 0.32953569 -0.38034755 0.45079374 0.41059428 -0.79258901 0
-0.1477284 -0.89242834 0.66331398 -0.19349796 -0.62989336 0.75219208 0
-0.14693411 -0.51277405 0.34092903 -0.45911923 -0.30181265 -0.83553499 0
-0.80326438 0.48775208 0.0047365502 -0.96306199 0.26748943 0.030998774 0
0.26297078 0.70851767 -0.57084805 0.29309535 0.64788979 -0.70308888 0
0.81957072 0.2837905 -0.37370366 -0.089800648 0.56410414 -0.82080597 0
-0.41013324 -0.20118165 0.015936993 -0.58903521 -0.80544823 0.065503918 0
0.34885499 0.81500232 0.21456026 0.32610446 0.81191117 0.48420662 0
-0.24699922 -0.83175278 0.64957535 -0.4561938 -0.26409638 0.84978837 0
-0.35154837 0.65640593 0.37030768 -0.35769802 0.60729665 0.70939612 0
-0.47123796 0.54871207 0.40884155 -0.39281416 0.80432898 0.44581604 0
-0.76652378 0.41760045 0.49674949 -0.55860221 0.78110307 -0.27900112 0
1.0101246 0.43098462 -0.39042312 -0.49008441 0.62308013 -0.60958052 0
0.30326283 -0.62812966 0.48450756 0.95887172 0.14669566 -0.24299282 0
0.82489407 0.27780345 -0.022882471 0.98093331 -0.19290656 0.023600804 0
-0.66037554 0.64081562 0.099349968 -0.58450329 0.64710361 0.48950273 0
-0.43085843 0.56550717 0.56771934 0.068301111 0.54810888 -0.83361351 0
-0.15151817 0.31479368 0.77423835 0.023600519 -0.04240093 0.99882191 0
-0.30832526 -0.79617184 0.60105282 -0.87678725 -0.041399401 0.47909304 0
-0.4283843 -0.084099166 -0.44904527 -0.65239096 -0.67819053 -0.33829525 0
0.55908126 0.69357961 0.16750865 0.65559584 0.58209628 0.48099694 0
0.41870087 0.81092131 -0.37403083 0.35700837 0.79531866 -0.48991153 0
-0.12472691 0.80071604 -0.51964456 -0.19270331 0.78541344 -0.58821005 0
0.36728382 -0.20682915 -0.28753546 0.59627271 -0.77566433 -0.20689049 0
0.1314842 0.2576355 0.76933002 -0.021400701 -0.13920456 0.99003237 0
-0.016857333 0.93871355 -0.14833553 -0.027100159 0.99860573 -0.04530026 0
-0.26413792 0.17207408 0.79467618 0.59190619 -0.53470552 0.60310632 0
0.21877798 -0.47573531 0.68290859 0.67943025 0.096004263 0.72743231 0
0.24340525 0.54421574 -0.68440938 0.35169169 0.37049124 -0.8596797 0
-0.17872837 -0.90567738 0.4336952 0.023101132 -0.52942592 -0.84804159 0
-1.1730012 0.065443367 -0.39088598 0.1838917 0.49747753 0.84776169 0
-0.69524425 0.055717889 0.29805228 -0.76567006 -0.62467563 0.15339401 0
-0.34823757 0.049402867 0.70117176 -0.023900341 -0.79971153 0.59990859 0
-0.5560196 0.44211313 0.72314787 -0.069799721 -0.42669836 0.90169644 0
0.5298121 -0.030796906 0.5923543 0.44788644 -0.62538111 0.63898069 0
0.61073697 0.48523757 0.37368405 0.46999595 0.87509245 0.115399 0
-0.44844976 0.21258906 -0.63179767 -0.46609464 -0.20359765 -0.86099011 0
0.47203624 -0.12673396 -0.29022506 0.49971545 -0.79802459 -0.33681041 0
0.48129451 0.59141999 0.34902525 0.4378106 0.65561599 0.61521494 0
0.88591212 0.1836955 -0.39690858 -0.31209427 0.017899672 -0.94988251 0
0.25014406 0.63868624 0.6242407 -0.31412041 0.38332492 -0.8685565 0
-0.59073526 0.53552133 0.30127323 -0.60193437 0.6354363 0.48362759 0
0.30683583 0.28444567 -0.70864856 0.40771696 -0.037501562 -0.9123379 0
0.88932538 0.0021610097 -0.29885238 0.076201707 0.69401556 0.71591604 0
-0.8064993 0.36602902 0.11119837 -0.97585762 0.087505162 0.20011182 0
-0.5474149 -0.12966968 -0.089926049 -0.36950791 -0.92921984 0.0038000811 0
0.61841792 -0.08535935 0.023801059 0.52219772 -0.82749647 0.2062991 0
0.39042795 0.50334215 0.76167423 0.049299899 -0.40609914 0.91249818 0
0.21810594 -0.35053352 0.0096321106 0.44490355 -0.89200717 -0.07990063 0
-0.51637429 0.8324284 -0.16032863 -0.52209538 0.85109246 -0.055299509 0
-0.22019564 -0.23661867 -0.43657321 -0.32389984 -0.81009966 -0.48869979 0
0.072728708 -0.7452963 0.36281714 0.14970076 -0.197501 -0.96880496 0
-0.14470288 0.54121417 0.54334104 -0.069497123 0.73966938 0.66937232 0
0.20944856 0.56682539 0.50381476 0.16550174 0.71570754 0.67850721 0
-0.52365887 0.76209372 0.12646338 -0.59379411 0.6954931 0.404596 0
-0.7812205 0.29715952 -0.38546753 -0.71540487 0.22050151 -0.66300452 0
0.30253878 0.049564771 0.73062229 0.20299527 -0.29879302 0.93247831 0
1.0677587 -0.041751113 -0.33148485 0.58391541 -0.42801127 0.68981826 0
-0.80679893 0.25587827 0.50649029 -0.97683954 -0.21000847 0.041001659 0
0.11211078 -0.17705518 0.76513189 0.91356874 0.40408614 -0.045898426 0
-0.46784642 0.29508388 -0.63166797 -0.45587724 -0.10889457 -0.88335598 0
-0.055645473 -0.18808568 0.81947976 -0.02290085 0.16070595 0.98673666 0
-0.80795115 0.31799862 0.47974682 -0.9448334 0.10720379 -0.30951095 0
-0.11171558 -0.40213796 0.045770787 -0.23129588 -0.96258277 -0.14119749 0
-0.55378133 -0.052079707 0.49719819 -0.49388233 -0.86416906 -0.096396551 0
-0.28410837 0.90833837 -0.21268621 -0.17299166 0.96925324 -0.17499158 0
0.38688916 -0.22186153 -0.065741524 0.58250642 -0.81250912 -0.022700254 0
-0.71613926 0.52823383 0.17909126 -0.6056096 0.61150968 0.50920802 0
0.1764472 -0.088692121 -0.6371097 0.3295041 -0.54310679 -0.77230954 0
0.70503896 0.44923416 -0.44810846 0.72921288 0.14000247 -0.66981184 0
0.21595158 0.13376449 0.76746166 0.059998967 0.028799504 0.99778283 0
0.38870382 0.12002338 -0.63909501 0.47491595 -0.29070973 -0.83062786 0
-0.7128942 0.13759486 0.56483871 -0.67292035 -0.41781268 0.6104185 0
0.047873963 -0.4457109 0.21425843 0.078398667 -0.97268349 -0.21849629 0
-1.1243699 0.034510534 -0.47494429 0.049500626 -0.43200549 -0.90051144 0
-0.3269788 0.0026807685 0.71388417 -0.32968536 -0.19249147 0.92425901 0
-0.24179414 -0.15370631 -0.54485893 -0.39540353 -0.72750658 -0.56070507 0
-0.14361268 -0.36497334 -0.11945684 -0.3130967 -0.93329006 -0.1758981 0
-0.87582588 0.035461374 -0.3201353 -0.059602857 0.314015 0.94754529 0
-0.66384196 0.37283134 0.67744684 -0.12759826 -0.43429404 0.89168787 0
-1.2051876 0.28104991 -0.51603192 0.13910292 0.026600555 -0.98992068 0
-0.66651517 0.6532231 -0.35191417 -0.62569726 0.60099739 -0.49729782 0
-0.060608998 -0.84396178 0.6650036 0.66829425 0.6637944 0.33579713 0
-0.19352338 -0.32056969 -0.24506882 -0.30540138 -0.92400408 -0.23010103 0
0.31899914 0.54149812 0.56731951 -0.18950203 0.8760094 -0.44350475 0
-0.1238841 0.93319452 -0.010368736 -0.090695731 0.99395323 0.061897088 0
0.19193423 -0.048176266 0.75405711 0.29610252 -0.07240063 0.95240825 0
-0.78067207 0.41807124 0.52812034 -0.56269896 0.78279859 -0.26569954 0
-0.13906741 -0.50308996 0.72761351 -0.30750871 -0.0059001674 0.95152694 0
0.96933365 0.15438685 -0.43760514 -0.43442231 -0.065203346 -0.89834607 0
-1.1890994 0.0092924833 -0.440272 -0.57139075 -0.81818676 -0.063898966 0
-0.14529626 0.30516413 0.70043129 0.75262868 0.2441093 0.61152333 0
0.24626735 -0.18377104 -0.50262052 0.41289628 -0.73409331 -0.53909516 0
-0.68099511 0.39361921 0.68244225 -0.30819014 -0.31638986 0.89717126 0
0.42579243 0.86598116 -0.23797639 0.39439723 0.90239364 -0.17359878 0
-0.1907846 -0.39858001 0.30653 -0.8644321 -0.43861631 -0.24570914 0
0.49277395 0.29406172 -0.61867744 0.4558773 -0.10889456 -0.88335598 0
-0.29904029 -0.58003765 0.59084558 -0.9596585 0.13099433 0.24878925 0
0.030057656 -0.77829659 0.66816616 0.10310314 -0.79632419 0.59601814 0
0.3440381 -0.15918717 -0.44694293 0.5020206 -0.76213139 -0.40881684 0
0.53246927 -0.12384513 0.077725165 0.47181982 -0.8714366 0.13410562 0
0.57114321 0.67120123 -0.43167984 0.50199056 0.55418962 -0.66398746 0
-0.22981633 0.072639845 -0.69724488 -0.33489186 -0.30689257 -0.89087844 0
1.1025649 0.34054941 -0.48292893 -0.31019723 0.14919868 -0.93889159 0
0.16127326 0.39249995 0.65730643 -0.62670434 0.56430387 0.53740376 0
-0.57103831 0.19971569 0.6150527 -0.84728962 -0.22969718 0.47889411 0
1.0832398 -0.047312103 -0.35352412 0.5456084 -0.71471101 0.43760675 0
0.00023651186 0.68646187 -0.65284365 0.093195647 0.5676735 -0.81796181 0
-1.2801594 0.40762627 -0.45165217 -0.76586682 0.64297211 0.0058997441 0
-0.58226854 0.44334635 -0.54716307 -0.52829653 0.12029921 -0.84049439 0
-0.17595522 -0.10755927 0.73610806 -0.46218863 -0.54558665 0.69908285 0
0.20587489 -0.36621609 0.26562199 0.78303945 -0.6217314 -0.017300874 0
-0.36791417 -0.23637094 -0.10208832 -0.61682957 -0.78643775 -0.032201543 0
-0.42761987 0.61515564 -0.56104594 -0.40998915 0.4596878 -0.78777921 0
0.49526134 0.056898687 0.60525459 0.60729623 -0.65869588 0.44419721 0
-0.74680883 0.19309086 0.56144375 -0.6922763 -0.36828738 0.62057871 0
-0.24763168 0.66210437 0.63958627 0.3452892 0.5921815 -0.72807723 0
-0.77103281 0.5349434 0.077227764 -0.80517274 0.52138239 0.28259045 0
0.41398636 -0.1192583 0.42191243 0.50547737 -0.84026235 0.1960912 0
0.056897677 0.67096591 0.43643296 0.06899979 0.66449791 0.74409777 0
0.064322971 0.47076118 0.76636469 -0.8120172 0.54481155 0.20930442 0
0.32870871 0.59058428 0.43999174 0.26020765 0.64621902 0.71742105 0
-0.14558257 0.5891518 0.7905159 0.72209477 0.44769675 0.52739614 0
-0.34824297 -0.23563239 -0.23442744 -0.59627265 -0.77566445 -0.20689051 0
-0.6350984 -0.081207901 -0.020274555 -0.46178272 -0.87416726 0.15029436 0
0.53163081 0.30581692 0.66865927 0.80270553 0.20590141 0.55970389 0
-0.55018777 -0.070176691 0.28911838 -0.53748018 -0.8228696 0.18439321 0
-0.5623672 0.27436385 0.67774624 0.31220713 -0.084801935 0.94622159 0
0.089791209 -0.25331295 0.79914284 0.3671957 -0.60489291 0.70659178 0
-0.12507616 -0.085014448 0.76492965 -0.014099932 -0.079999618 0.99669522 0
-0.37177378 0.80973101 0.20796593 -0.32610446 0.81191117 0.48420665 0
0.77903646 0.20356606 0.39697739 0.94870359 -0.30190116 -0.09390036 0
-0.72579998 0.13704008 -0.4174538 -0.56419849 -0.19859944 -0.80139786 0
0.74817216 0.063472867 0.10655705 0.86272991 -0.47791663 0.16520572 0
-0.2966823 -0.68383706 0.6184485 -0.87956613 0.053297944 0.47278181 0
0.59572017 0.15214959 -0.51417696 0.51780415 -0.37770307 -0.76760626 0
0.22251827 0.86028594 0.19717623 0.11970214 0.85811538 0.49930894 0
-0.17012337 0.4998295 0.81388927 -0.34379569 -0.26359668 0.90128869 0
-0.67547804 -0.058601357 -0.049594611 -0.63128757 -0.76858491 0.10369796 0
-0.097823597 0.82322896 -0.49498072 -0.066999532 0.79839444 -0.59839582 0
-0.14784396 -0.37431878 0.72159714 -0.45901179 0.066701718 0.88592273 0
-0.53994042 0.52972054 0.55131924 -0.30539799 0.87259418 -0.38119742 0
-0.29494056 -0.57834172 0.60188919 -0.8746798 0.10679752 0.47278905 0
0.31179678 -0.77574366 0.44990367 0.89301842 0.11750242 -0.43440893 0
-0.14463983 0.72763324 -0.5929991 -0.22288972 0.67476887 -0.7035675 0
0.61731505 0.74685651 -0.059237994 0.67773151 0.72513378 0.12190568 0
0.22642158 -0.2461125 0.51347864 0.96235472 0.23468892 0.13709354 0
-0.13333848 0.20210423 0.76252532 0.14549626 -0.17039561 0.97457486 0
0.77546996 0.53962171 -0.2524749 0.95708054 0.26289463 -0.12199751 0
0.10846613 0.92363799 -0.24812368 0.030301334 0.98584348 -0.16490728 0
0.69629496 -0.045860257 -0.10171929 0.72476113 -0.67906356 0.11659376 0
0.088921353 0.13336878 0.74967808 -0.03330107 -0.11650374 0.99263185 0
0.14005274 -0.36357665 -0.13320392 0.31309664 -0.93329006 -0.1758981 0
0.31954682 -0.2446311 -0.28065521 0.52541232 -0.81751913 -0.23580553 0
0.025109407 0.44175875 0.73373359 -0.54130405 0.84020627 0.032300238 0
0.76816595 0.084158987 -0.019011641 0.92327881 -0.3785913 -0.064998507 0
0.25311676 0.63930666 0.62343943 -0.31412038 0.38332492 -0.86855644 0
-0.65030301 0.21393034 -0.49612927 -0.59201443 -0.25350618 -0.76501864 0
-0.0098180883 -0.40550128 -0.026470307 -0.073097251 -0.98176312 -0.17549342 0
0.41097748 0.88059306 -0.19514327 0.26640114 0.94650406 -0.18210079 0
0.70396739 0.46881068 0.56801283 0.37699386 0.91498518 -0.14379767 0
-0.022642933 0.23368837 -0.7772857 -0.094203718 -0.070702784 -0.99303913 0
0.76992655 0.10223781 -0.061311193 0.92563164 -0.35081202 -0.14190486 0
0.0078415098 -0.087742887 -0.6747995 0.09469454 -0.56206757 -0.82165259 0
-0.029508991 -0.12497625 -0.64414191 -0.089602366 -0.67881793 -0.72881925 0
-0.2827439 -0.10063745 0.67211294 -0.3984001 -0.73100013 0.55400014 0
-0.14005594 -0.95999634 0.51340383 -0.10560511 -0.97904736 -0.17410843 0
0.41106525 0.20778681 0.79834294 0.33909482 -0.084098719 0.93698561 0
0.53774995 0.78876841 -0.30002242 0.4812226 0.8026377 -0.35241655 0
0.78138441 0.12854852 0.10034051 0.92528743 -0.36299509 0.1098985 0
0.27939928 -0.19946201 0.44336826 0.62321287 -0.63121313 0.46170953 0
0.07159248 -0.85166013 0.695472 -0.3895019 0.068100333 0.91850454 0
-1.2554446 0.16675931 -0.51411188 -0.0084001822 -0.21020457 -0.97762126 0
-0.30155548 0.55059129 0.79019994 -0.14969684 -0.3150934 0.93718034 0
0.43980438 -0.15279429 -0.27449903 0.59130484 -0.77870637 -0.20970172 0
-0.27091229 -0.077731162 0.7028892 -0.40060169 -0.6237027 0.67120278 0
-0.344466 0.58706588 0.43622264 -0.33720982 0.63511848 0.69492024 0
-0.063640073 0.42523819 -0.76526797 -0.10010326 0.22530733 -0.96913153 0
1.1063032 0.041933 -0.4182786 -0.37999064 0.90297776 0.20059507 0
-1.0502189 0.27072492 -0.47189039 0.3509143 0.026301075 -0.9360382 0
0.0069123888 -0.40106234 -0.052510083 0.073097244 -0.98176306 -0.1754934 0
0.67857689 0.6943844 -0.21330898 0.71352804 0.69692737 -0.071902819 0
-0.64756089 0.59858334 -0.42546761 -0.61889488 0.47179613 -0.62799484 0
-0.72914577 0.095813096 0.45322639 -0.75781029 -0.63640863 -0.14390196 0
-0.32694158 0.67879713 0.36351067 -0.25599718 0.625193 0.73729169 0
0.6880042 0.44393218 0.38081068 0.49761963 0.86343402 0.082803264 0
0.29828537 -0.28744486 -0.13484122 0.53089207 -0.84408742 -0.075298868 0
1.0695157 0.19525664 -0.48153639 -0.34289521 0.033199534 -0.9387868 0
-0.3003332 -0.24020061 -0.33492965 -0.52287471 -0.78946179 -0.32148445 0
1.2745491 0.41312626 -0.47154886 0.68770981 0.6063087 -0.39930576 0
0.26382568 0.88729721 -0.30866536 0.19818974 0.93065184 -0.30758408 0
-0.19986345 0.22182634 -0.74169445 -0.34611416 -0.11070452 -0.93163806 0
0.71395707 0.29767585 -0.45670673 0.67520988 0.017800262 -0.73741078 0
0.73316842 0.099952817 0.49431989 0.76541245 -0.55850899 0.31970522 0
-0.58148992 0.5316506 0.66432172 -0.53891581 0.80302352 0.25440747 0
-0.70576292 -0.030165883 -0.34179473 -0.14360256 -0.66011178 -0.73731315 0
1.0292305 0.3721478 -0.32913265 0.58540308 -0.53620285 0.60810328 0
-0.46281421 0.84842461 0.027296394 -0.43601173 0.88132381 0.18210492 0
-0.44619173 0.77547443 -0.40879169 -0.38651597 0.76763165 -0.51122111 0
-1.0263041 0.44755185 -0.37593168 0.41229427 0.85118824 -0.32479551 0
0.25273651 -0.712448 0.39645496 0.47189102 0.031799402 -0.88108319 0
0.25542843 -0.34410426 0.51845306 0.94297671 0.32029209 -0.090597756 0
-0.21832103 0.3270179 -0.74139011 -0.32530114 0.024100086 -0.94530326 0
0.56924826 0.043273404 0.62645841 0.45040017 -0.43480015 0.77980036 0
0.33342621 0.69775623 0.34384581 0.35928726 0.62847775 0.6898756 0
0.75236571 0.021915831 -0.36393616 0.12319615 -0.39548758 -0.91017151 0
1.0707181 -0.0073111309 -0.33532172 0.24560073 0.58480173 0.77310228 0
-0.93592095 0.35290995 -0.25153401 -0.61471027 -0.2469041 0.74911255 0
-0.53811133 0.65693426 0.23182812 -0.60131854 0.56051731 0.5694176 0
-1.0501887 0.011231109 -0.36556008 0.30509311 0.94057882 0.14909662 0
0.033881657 0.91194141 0.11282034 0.030299667 0.94158971 0.33539632 0
0.79592717 0.48275921 -0.21162149 0.97737712 0.19419545 -0.083798036 0
-1.2814783 0.35815376 -0.41969126 -0.45432493 0.15890872 0.87654817 0
0.53041369 0.74842238 -0.37874269 0.45691374 0.72232169 -0.51911563 0
0.016331311 0.88662457 0.18297936 0.034600656 0.87181646 0.48860922 0
-0.0077268779 0.91728961 0.1001716 -0.030299667 0.94158971 0.33539632 0
0.87498069 0.011955895 -0.30886403 -0.14080244 0.63781095 0.75721312 0
0.20378196 -0.29613969 0.64875716 0.85601115 0.24050312 0.45760593 0
-0.43465436 0.4912048 0.75410748 -0.029900249 -0.43360364 0.90060753 0
0.021540083 0.44029918 0.7214002 -0.51398289 0.85567147 0.060397994 0
-0.80731159 0.4560585 0.030421454 -0.96116263 0.25019029 0.11649548 0
-0.66792774 0.50508159 -0.46171755 -0.67050087 0.29230043 -0.68190104 0
-0.80689514 0.21195044 -0.17729975 -0.92737567 -0.35889059 0.10569723 0
-0.74261147 0.11425639 0.49661973 -0.76800966 -0.54360682 0.33860427 0
0.057577826 -0.31674644 0.74974287 0.19990692 -0.3563123 0.91273153 0
0.5865857 0.74996674 -0.30740196 0.54539657 0.75919509 -0.35519773 0
0.14864212 0.82079786 0.27234414 0.13799304 0.76236147 0.63226807 0
-0.55084139 0.59260976 -0.50320643 -0.45989704 0.48839685 -0.74159515 0
0.14057019 0.9357301 -0.10102443 0.08939898 0.9950887 -0.042499516 0
0.61287993 0.44292396 -0.52489364 0.50501174 0.26470616 -0.82151908 0
-0.13393766 -0.42421338 0.23597799 -0.38390726 -0.87561655 -0.29310557 0
0.60915232 0.76101708 -0.17357644 0.66478616 0.74468452 -0.059198767 0
0.2104183 -0.35897622 0.056340754 0.47731173 -0.87732166 -0.049801234 0
-0.77635676 0.33279836 0.2994878 -0.96544218 0.26061139 -0.0018000787 0
0.24623999 0.76558959 -0.52378815 0.28691158 0.73302948 -0.61672479 0
0.012412465 -0.47778815 0.27326933 0.052499082 -0.72248739 -0.68938798 0
-0.4608272 0.1402535 0.72579354 -0.62521404 -0.39550889 0.67281508 0
-0.17062908 -0.45019832 0.32314938 -0.65350908 -0.4287059 -0.62380862 0
-0.63097268 0.60850465 0.17037015 -0.52159977 0.63349962 0.57149971 0
0.25750247 -0.36248377 0.4875094 0.93503606 0.25550985 -0.2458095 0
-0.73477566 0.62233549 -0.24520725 -0.79629821 0.57939869 -0.17379962 0
0.12156944 -0.83255631 0.70142347 0.25099373 -0.28109297 0.92627692 0
0.79935294 0.16503611 -0.38525161 0.28460428 -0.082201242 -0.95511436 0
-0.52672672 0.80015671 0.042735174 -0.5797056 0.76560736 0.27890268 0
0.27471298 -0.44133866 0.59024018 0.93411726 0.23280433 0.27060503 0
0.7962392 0.2877937 -0.37708172 0.06139946 0.62339449 -0.77949309 0
0.16789496 0.93180484 -0.13523993 0.088103071 0.99513471 -0.044101536 0
0.42219105 0.80585957 -0.37970468 0.35700837 0.79531866 -0.48991147 0
-0.21723001 0.13415387 0.74473417 0.48931789 -0.46031675 0.74072701 0
0.14974879 0.92407358 0.034572978 0.095800154 0.97700155 0.19050029 0
-0.022148468 0.93640167 -0.0055724219 -0.027999312 0.99777544 0.06049851 0
-0.037960228 -0.86623168 0.68105596 0.4316172 0.81343246 0.38991559 0
-0.42703298 -0.019737734 -0.53547281 -0.63923001 -0.54462558 -0.54292554 0
-0.13957445 0.51483595 0.62248302 0.53567022 0.58016771 -0.6135658 0
0.76783413 0.38606745 0.24056412 0.89282948 0.34891146 0.28480935 0
-0.44641292 0.035958648 0.62688738 -0.47871816 -0.74792844 0.45981747 0
-0.62674683 0.064718992 -0.4451963 -0.43691862 -0.53792292 -0.72093076 0
1.2390115 0.077372663 -0.41558906 0.64600122 -0.36940062 0.66800123 0
-0.015139683 -0.81532323 0.64739776 0.00039999373 -0.18999703 0.98178464 0
-0.48913482 0.53614837 0.53303206 -0.21089314 0.92546988 -0.31468976 0
0.12416424 -0.52048963 0.33292919 0.35938489 -0.30608714 -0.88156295 0
-0.69456685 -0.04346795 -0.07264933 -0.75938833 -0.64759004 0.062899038 0
